0.367109 0.235696 0.7142 -0.000946622 -0.998539 0.00121128
0.369906 0.235695 0.721418 -0.077558 -0.827059 0.141972
0.356134 0.235699 0.716972 -0.0304476 -0.932507 0.0554161
0.355136 0.235699 0.720009 -0.0626931 -0.860331 0.114662
0.387599 0.23569 0.732305 -0.193034 -0.568589 0.354138
0.350486 0.235701 0.739669 -0.271447 -0.393074 0.498214
0.374443 0.235694 0.718563 -0.0472206 -0.894964 0.0862313
0.424245 0.235679 0.727861 -0.145621 -0.674716 0.267018
0.443153 0.235673 0.715828 -0.0177594 -0.96091 0.0320915
0.369518 0.235695 0.723866 -0.103551 -0.768879 0.18973
0.35152 0.2357 0.722665 -0.0909187 -0.797153 0.166523
0.404548 0.235685 0.72967 -0.164952 -0.631444 0.30254
0.360399 0.235698 0.748159 -0.361511 -0.191483 0.663691
0.354979 0.235699 0.750939 -0.391065 -0.125332 0.717992
0.373158 0.235694 0.740008 -0.274901 -0.385344 0.504558
0.35215 0.2357 0.718497 -0.0466668 -0.896203 0.0852168
0.3543 0.2357 0.724904 -0.114665 -0.744001 0.210152
0.43001 0.235677 0.728307 -0.150325 -0.664186 0.275661
0.425777 0.235679 0.730164 -0.170067 -0.619997 0.311935
0.397363 0.235687 0.727985 -0.147106 -0.67139 0.269751
0.393568 0.235688 0.716333 -0.0234322 -0.948211 0.0425213
0.450584 0.235671 0.720571 -0.0680697 -0.8483 0.124527
0.402169 0.235686 0.725885 -0.124786 -0.721349 0.228741
0.373306 0.235694 0.728927 -0.157263 -0.648655 0.288416
0.418004 0.235681 0.728602 -0.153524 -0.657024 0.281541
0.391343 0.235689 0.730292 -0.171638 -0.61648 0.314826
0.378408 0.235693 0.720868 -0.0716691 -0.840241 0.131151
0.382656 0.235691 0.739947 -0.274194 -0.386926 0.503258
0.349812 0.235701 0.715653 -0.0164802 -0.96377 0.0297541
0.355444 0.235699 0.738328 -0.257174 -0.425022 0.471989
0.423716 0.235679 0.724718 -0.112255 -0.749397 0.205716
0.409213 0.235683 0.71635 -0.0235138 -0.948029 0.042669
0.398424 0.240136 0.723075 -0.061824 0.881623 0.0871887
0.414239 0.240131 0.72217 -0.0554507 0.89377 0.078242
0.362176 0.240146 0.739888 -0.179078 0.658183 0.251757
0.4137 0.240131 0.724144 -0.0692045 0.867561 0.0975454
0.40607 0.240133 0.731056 -0.117382 0.775755 0.165163
0.411037 0.240132 0.723011 -0.061323 0.882579 0.0864841
0.36418 0.240146 0.740883 -0.185997 0.644998 0.261468
0.36137 0.240147 0.731014 -0.117266 0.77597 0.165005
0.379209 0.240141 0.731601 -0.121288 0.768308 0.170648
0.416809 0.24013 0.717583 -0.0234919 0.95467 0.0333879
0.356145 0.240148 0.728586 -0.10038 0.808146 0.141307
0.361089 0.240147 0.718881 -0.0327633 0.936996 0.0464064
0.376515 0.240142 0.74506 -0.215044 0.589648 0.302234
0.359752 0.240147 0.734716 -0.14306 0.726818 0.201206
0.415159 0.240131 0.727494 -0.0925336 0.823106 0.130288
0.37349 0.240143 0.723317 -0.0636053 0.878226 0.0896915
0.350937 0.24015 0.747133 -0.229581 0.561945 0.322639
0.460947 0.240117 0.718029 -0.0264205 0.949094 0.0374932
0.407604 0.240133 0.727304 -0.0912374 0.825575 0.128469
0.385237 0.24014 0.727106 -0.0899535 0.828019 0.12667
0.40418 0.240134 0.72499 -0.0751385 0.856252 0.105875
0.364374 0.240146 0.732211 -0.125595 0.760098 0.176695
0.385175 0.24014 0.721276 -0.0493432 0.905405 0.0696735
0.354887 0.240148 0.748062 -0.236035 0.549645 0.331698
0.388742 0.240138 0.717779 -0.0249743 0.951842 0.0354715
0.386089 0.240139 0.73789 -0.165065 0.684889 0.232087
0.472655 0.240114 0.714982 -0.00514656 0.989635 0.00763407
0.389923 0.240138 0.730957 -0.116755 0.776948 0.164284
0.415691 0.240131 0.731609 -0.121195 0.76849 0.170513
0.361074 0.240147 0.750108 -0.250264 0.522532 0.351667
0.402251 0.240135 0.720868 -0.0464323 0.910954 0.0655861
0.377715 0.240142 0.732102 -0.124777 0.761658 0.175546
0.389361 0.240138 0.726948 -0.0888314 0.830157 0.125094
0.354243 0.240149 0.735341 -0.147435 0.718481 0.207347
0.429991 0.240126 0.721065 -0.0476904 0.908559 0.0673488
0.409897 0.240132 0.727395 -0.0918647 0.82438 0.129349
0.356827 0.240148 0.736848 -0.157921 0.698499 0.222064
0.396207 0.240136 0.737139 -0.159789 0.694943 0.224683
0.413605 0.240131 0.731516 -0.120555 0.769708 0.169616
0.367699 0.240145 0.719412 -0.036434 0.930002 0.0515574
0.365148 0.240145 0.717053 -0.0200083 0.961302 0.0285043
0.468623 0.240115 0.714552 -0.00217342 0.9953 0.00346174
0.431555 0.240126 0.722209 -0.055658 0.893377 0.0785311
0.385551 0.240139 0.72065 -0.0449857 0.913708 0.0635577
0.428384 0.240127 0.717843 -0.0252546 0.951312 0.0358605
0.389602 0.240138 0.724196 -0.069668 0.866675 0.0981986
0.381771 0.240141 0.728014 -0.0962912 0.815942 0.135565
0.443322 0.240122 0.718484 -0.029661 0.942917 0.0420431
0.377967 0.240142 0.728688 -0.100998 0.806972 0.142171
0.42677 0.240127 0.718266 -0.0282092 0.945682 0.0400074
0.393793 0.240137 0.720502 -0.0439191 0.915742 0.0620599
0.368584 0.240144 0.731225 -0.118706 0.773228 0.167025
0.35347 0.240149 0.730871 -0.116303 0.777805 0.163654
0.432584 0.240126 0.726188 -0.0833619 0.840585 0.117413
0.428197 0.240127 0.715258 -0.00725109 0.985619 0.0105927
0.43792 0.240124 0.721108 -0.0479605 0.908046 0.0677269
0.402633 0.240134 0.715302 -0.00766124 0.984835 0.0111712
0.365659 0.240145 0.715013 -0.00579644 0.988384 0.00855812
0.362876 0.240146 0.748861 -0.241569 0.539101 0.339463
0.359746 0.240147 0.735893 -0.15126 0.711191 0.212716
0.365591 0.240145 0.749232 -0.244144 0.534196 0.343077
0.614714 0.235691 0.766596 0.0761746 -0.715876 0.255225
0.570601 0.235677 0.781769 0.176601 -0.286194 0.67142
0.572161 0.235678 0.781812 0.190416 -0.252394 0.703442
0.57503 0.235679 0.781282 0.1976 -0.24165 0.713282
0.589261 0.235683 0.771916 0.0310903 -0.758607 0.218092
0.574664 0.235679 0.775987 0.0358613 -0.696716 0.279217
0.623393 0.235693 0.763102 0.0411567 -0.84346 0.132275
0.621433 0.235693 0.765207 0.0885184 -0.703346 0.266219
0.613836 0.23569 0.768634 0.130246 -0.560423 0.403646
0.589804 0.235683 0.777362 0.198782 -0.287335 0.667592
0.556627 0.235673 0.780181 0.0166293 -0.691123 0.287126
0.559123 0.235674 0.77942 0.0138748 -0.707174 0.271457
0.631817 0.235696 0.762148 0.0802863 -0.761025 0.209713
0.610014 0.235689 0.768063 0.0823956 -0.682731 0.287514
0.551845 0.235672 0.779899 -0.0302703 -0.807564 0.176727
0.568688 0.235677 0.775659 -0.0220409 -0.840232 0.14316
0.55696 0.235673 0.767855 -0.0890292 -0.846111 0.0943883
0.564772 0.235676 0.775617 -0.037587 -0.861619 0.120369
0.562811 0.235675 0.776686 -0.0367832 -0.861391 0.123524
0.618348 0.235692 0.762488 0.0135276 -0.887372 0.0857265
0.547973 0.235671 0.776073 -0.0702576 -0.849097 0.119491
0.61158 0.23569 0.761064 -0.00694385 -0.880374 0.0802167
0.577418 0.23568 0.766127 -0.0545795 -0.859934 0.0916942
0.619892 0.235692 0.762891 0.0185554 -0.889064 0.0872365
0.533717 0.235667 0.773608 -0.110946 -0.835008 0.109599
0.544147 0.23567 0.769946 -0.106023 -0.838678 0.0993092
0.552261 0.235672 0.775916 -0.0621012 -0.852245 0.119585
0.651267 0.235701 0.721956 0.216262 -0.722118 -0.0646503
0.652207 0.235701 0.688275 0.389719 -0.519748 -0.222509
0.609675 0.235689 0.688543 0.0215182 -0.945209 -0.0503085
0.635224 0.235697 0.700344 0.0117947 -0.970299 -0.0272721
0.552168 0.235672 0.710904 0.00305326 -0.992884 -0.00653048
0.597495 0.235686 0.705957 0.00715109 -0.982295 -0.0162557
0.592948 0.235684 0.702655 0.00987307 -0.975271 -0.0227053
0.585184 0.235682 0.71079 0.00316025 -0.992599 -0.00679401
0.637481 0.235697 0.701397 0.0109274 -0.972537 -0.0252174
0.552051 0.235672 0.707084 0.00620444 -0.98475 -0.0139985
0.618363 0.235692 0.707767 0.00566645 -0.986121 -0.0127435
0.604764 0.235688 0.713776 0.000705081 -0.99893 -0.000981363
0.634362 0.235697 0.680284 0.0283388 -0.927598 -0.0664803
0.602656 0.235687 0.702343 0.0101342 -0.974594 -0.0233269
0.635368 0.235697 0.707472 0.00591619 -0.985472 -0.0133405
0.635181 0.235697 0.704641 0.00825084 -0.979446 -0.0188734
0.638034 0.235698 0.676935 0.0311024 -0.920465 -0.0730307
0.598736 0.235686 0.705742 0.00732901 -0.981835 -0.0166778
0.641693 0.235699 0.706142 0.00701566 -0.982632 -0.0159481
0.612633 0.23569 0.703525 0.00916273 -0.977099 -0.0210277
0.540711 0.235669 0.713192 0.00116224 -0.997768 -0.00204545
0.639857 0.235698 0.682552 0.026471 -0.932418 -0.0620552
0.616167 0.235691 0.694668 0.016469 -0.95824 -0.0383441
0.635347 0.235697 0.681229 0.0275601 -0.929608 -0.0646351
0.644539 0.2357 0.696356 0.0150874 -0.961798 -0.0350784
0.54088 0.235669 0.712256 0.00193401 -0.995776 -0.00387453
0.623179 0.235693 0.709538 0.00420714 -0.989886 -0.00928656
0.614355 0.235691 0.706656 0.00658108 -0.983762 -0.0149099
0.638986 0.235698 0.705766 0.00732458 -0.981836 -0.0166794
0.632846 0.235696 0.692607 0.0181752 -0.953832 -0.0423928
0.596363 0.235685 0.714146 0.00039644 -0.999729 -0.000247371
0.605386 0.235688 0.700888 0.0113346 -0.971495 -0.0261728
0.648231 0.235701 0.709286 0.00442533 -0.989316 -0.00981121
0.611919 0.23569 0.685058 0.0243932 -0.937788 -0.0571225
0.555852 0.235673 0.702447 0.0100301 -0.974875 -0.0230662
0.583485 0.235682 0.6943 0.0167596 -0.957499 -0.039023
0.64258 0.235699 0.693502 0.017441 -0.955724 -0.0406558
0.560484 0.235675 0.712183 0.0020022 -0.995594 -0.00404206
0.624222 0.235694 0.695879 0.0154736 -0.960807 -0.0359875
0.5984 0.235686 0.706098 0.0070352 -0.982594 -0.0159814
0.598844 0.235686 0.710618 0.00330768 -0.992214 -0.00714753
0.54976 0.235672 0.714185 0.00034684 -0.99987 -0.000115745
0.62315 0.235693 0.682848 0.0262205 -0.933069 -0.0614567
0.540062 0.235669 0.713935 0.000549206 -0.99935 -0.000592408
0.623161 0.235693 0.704183 0.00862372 -0.978487 -0.0197535
0.644393 0.2357 0.698346 0.013446 -0.966035 -0.0311883
0.627532 0.235695 0.685901 0.0237043 -0.939562 -0.0554947
0.640771 0.235698 0.691423 0.0191547 -0.951301 -0.0447164
0.623491 0.235693 0.695265 0.0159794 -0.959502 -0.037186
0.589508 0.235683 0.704428 0.00840919 -0.97905 -0.0192349
0.624491 0.235694 0.704186 0.0086221 -0.978491 -0.0197501
0.552833 0.240122 0.760374 0.0269811 0.87808 0.115558
0.600709 0.240136 0.745421 0.0163779 0.944374 0.0524976
0.548174 0.24012 0.753854 0.023147 0.895011 0.0995126
0.553696 0.240122 0.750331 0.0208265 0.907931 0.0872359
0.567449 0.240126 0.731953 0.00918831 0.968264 0.0299516
0.543196 0.240119 0.727752 0.00737436 0.969208 0.0291411
0.559387 0.240124 0.746165 0.0181087 0.922815 0.073096
0.562616 0.240124 0.742827 0.0159728 0.934113 0.0623662
0.574699 0.240128 0.771215 0.0329198 0.85655 0.135906
0.609292 0.240138 0.767488 0.0295769 0.883699 0.110028
0.530279 0.240115 0.7209 0.00359283 0.98324 0.0158748
0.552638 0.240122 0.738341 0.0135438 0.942588 0.0543616
0.537248 0.240117 0.731481 0.00983357 0.955484 0.0421812
0.594592 0.240134 0.767542 0.0300643 0.876646 0.116771
0.562567 0.240125 0.778985 0.0380356 0.828079 0.162959
0.573471 0.240128 0.746949 0.018152 0.92712 0.0689621
0.559599 0.240124 0.768927 0.0319906 0.856176 0.136314
0.576802 0.240129 0.7579 0.0247306 0.896576 0.0979272
0.567475 0.240126 0.743667 0.0163349 0.93393 0.0625227
0.563304 0.240125 0.766028 0.0301073 0.866413 0.126589
0.597093 0.240135 0.765192 0.0285531 0.88471 0.109113
0.570997 0.240127 0.778549 0.037509 0.833311 0.157965
0.568235 0.240126 0.753499 0.0223106 0.905459 0.0895301
0.576477 0.240129 0.74424 0.0164061 0.936473 0.0600786
0.585344 0.240131 0.756902 0.0238581 0.903506 0.0913229
0.597538 0.240135 0.755412 0.0225722 0.913592 0.0817108
0.594129 0.240134 0.762026 0.0267128 0.892603 0.101635
0.592785 0.240133 0.75935 0.0251213 0.89982 0.0947931
0.536513 0.240117 0.734916 0.0119523 0.945068 0.0520658
0.626513 0.240143 0.759971 0.0244581 0.913816 0.0813967
0.572502 0.240128 0.780938 0.0389202 0.827012 0.163936
0.607699 0.240138 0.765471 0.0283951 0.888868 0.105131
0.58082 0.24013 0.77178 0.0330757 0.857762 0.134734
0.552515 0.240122 0.745369 0.0178358 0.921924 0.0739656
0.603877 0.240137 0.765959 0.0288112 0.885643 0.108203
0.614928 0.24014 0.759643 0.024616 0.909344 0.0856799
0.555363 0.240122 0.755344 0.0238342 0.894013 0.100434
0.565172 0.240126 0.78216 0.0398925 0.819991 0.170622
0.559674 0.240124 0.73233 0.00965854 0.963512 0.0344863
0.575424 0.240128 0.753419 0.0220393 0.909066 0.0860823
0.576074 0.240128 0.746668 0.0179003 0.929164 0.0670143
0.565378 0.240125 0.734714 0.0109369 0.959197 0.0385597
0.622849 0.240142 0.765909 0.0281942 0.894688 0.0995556
0.569671 0.240127 0.754143 0.0226588 0.904246 0.090676
0.619731 0.240141 0.753884 0.020954 0.928481 0.0675085
0.586163 0.240132 0.767859 0.0305182 0.871764 0.121433
0.590261 0.240133 0.771819 0.0328078 0.862075 0.130609
0.556306 0.240123 0.761686 0.0276746 0.87586 0.117652
0.598619 0.240135 0.761047 0.0259769 0.897579 0.0968989
0.598224 0.240135 0.759371 0.0249663 0.902308 0.0924137
0.594428 0.240134 0.759933 0.0254268 0.898879 0.0956804
0.544554 0.240119 0.73739 0.0132131 0.941587 0.0553401
0.570122 0.240127 0.754614 0.0229325 0.903075 0.0917848
0.599545 0.240135 0.742691 0.0147483 0.951832 0.0454266
0.622023 0.240142 0.756948 0.0227525 0.920573 0.0750026
0.584627 0.240131 0.765079 0.0288692 0.879196 0.114387
0.571205 0.240127 0.768458 0.031346 0.862993 0.129806
0.574783 0.240128 0.737612 0.0124144 0.955111 0.042403
0.601827 0.240136 0.76388 0.0276058 0.890779 0.103338
0.57891 0.24013 0.771191 0.0327753 0.858593 0.133953
0.573477 0.240128 0.773966 0.0346365 0.847909 0.144108
0.535975 0.240117 0.750189 -0.25711 0.628894 0.216935
0.562445 0.240125 0.780074 0.0269912 0.81342 0.171182
0.538712 0.240118 0.747674 -0.133885 0.759142 0.153936
0.540824 0.240118 0.747679 -0.0713672 0.821068 0.125546
0.544937 0.240119 0.754217 -0.0589631 0.812144 0.138142
0.541132 0.240119 0.771924 -0.468205 0.349233 0.373443
0.54591 0.24012 0.773141 -0.346996 0.465374 0.321768
0.526925 0.240114 0.728886 -0.168659 0.785641 0.117353
0.552052 0.240122 0.768808 -0.0924114 0.731668 0.19402
0.548604 0.240121 0.759494 -0.0386368 0.815164 0.143619
0.531908 0.240116 0.744421 -0.281091 0.623847 0.211748
0.527789 0.240114 0.747469 -0.454196 0.442451 0.298894
0.53966 0.240118 0.758512 -0.287252 0.572029 0.253835
0.529385 0.240115 0.725473 -0.0385724 0.925602 0.048732
0.527556 0.240114 0.738038 -0.303202 0.622647 0.203998
0.5453 0.24012 0.774704 -0.391223 0.416485 0.346219
0.535298 0.23612 0.775015 -0.138682 -0.751187 0.191522
0.536552 0.235668 0.775799 -0.0951733 -0.839761 0.117121
0.53737 0.237086 0.776312 -0.208253 -0.56937 0.36057
0.563226 0.238653 0.785368 0.0707649 0.416747 0.315437
0.560108 0.237991 0.784624 0.0576823 0.173206 0.311762
0.643172 0.237514 0.758677 0.0557065 -0.0846325 0.133782
0.639051 0.238781 0.760149 0.0585243 0.484686 0.174416
0.630345 0.237652 0.763261 0.0891392 0.113424 0.268358
0.617895 0.236683 0.76771 0.128728 -0.150042 0.401316
0.635543 0.235932 0.761403 0.0863668 -0.654739 0.217353
0.632569 0.236184 0.762466 0.0926894 -0.517644 0.248084
0.587407 0.235932 0.778605 0.215178 -0.125263 0.723473
0.655195 0.240152 0.721139 0.329808 0.656217 0.0891241
0.652783 0.240151 0.74265 0.201692 0.765191 0.0865792
0.657142 0.237993 0.696053 0.77872 -0.209582 -0.0686692
0.656853 0.238306 0.691831 0.730132 -0.258684 -0.0884502
0.657714 0.236993 0.704414 0.816854 -0.171073 -0.0232485
0.571005 0.240127 0.706675 0.000758866 0.998288 -0.001351
0.635386 0.240146 0.70042 0.00163042 0.996868 -0.00246608
0.596107 0.240134 0.697158 0.00208003 0.996137 -0.00304752
0.643666 0.240148 0.709116 0.000425255 0.99883 -0.00091584
0.593366 0.240134 0.702585 0.00132747 0.997362 -0.00208015
0.648456 0.24015 0.695622 0.00229653 0.995783 -0.0033214
0.632262 0.240145 0.703448 0.00121043 0.997552 -0.00192635
0.606266 0.240137 0.705408 0.000936849 0.997998 -0.00157682
0.589804 0.240132 0.703922 0.00114185 0.997664 -0.0018418
0.629234 0.240144 0.696176 0.00221846 0.995911 -0.00322266
0.618335 0.240141 0.692824 0.00268255 0.995156 -0.0038203
0.614667 0.24014 0.696416 0.00218421 0.995967 -0.00317988
0.626666 0.240143 0.688667 0.00325946 0.994217 -0.00456134
0.543544 0.240119 0.710692 0.000200052 0.999199 -0.000634857
0.633797 0.240146 0.681716 0.00422378 0.992647 -0.00580059
0.616456 0.24014 0.702324 0.00136512 0.9973 -0.00212659
0.625886 0.240143 0.690215 0.00304478 0.994566 -0.00428539
0.58542 0.240131 0.699082 0.00181261 0.996573 -0.00270461
0.577544 0.240129 0.704254 0.00109502 0.997741 -0.00178264
0.579203 0.240129 0.711597 7.69288e-05 0.999398 -0.000473501
0.603981 0.240137 0.698338 0.00191705 0.996402 -0.00283729
0.606617 0.240138 0.69429 0.0024785 0.995488 -0.00355894
0.602867 0.240136 0.705428 0.000933871 0.998003 -0.00157328
0.612672 0.240139 0.693377 0.00260543 0.995282 -0.00372163
0.650917 0.240151 0.687715 0.00339306 0.993999 -0.00473104
0.634777 0.240146 0.711884 4.09238e-05 0.999455 -0.000422451
0.615694 0.24014 0.70345 0.00120904 0.997554 -0.00192597
0.631754 0.240145 0.708558 0.000501866 0.998705 -0.00101536
0.566932 0.240126 0.704698 0.00103271 0.997843 -0.00170343
0.622879 0.240142 0.71207 1.42862e-05 0.999499 -0.000389221
0.550246 0.240121 0.70853 0.000500274 0.99871 -0.00102029
0.602797 0.240136 0.698267 0.00192681 0.996386 -0.00284995
0.615346 0.24014 0.703011 0.00126977 0.997456 -0.0020041
0.573913 0.240128 0.712156 -9.15666e-07 0.999525 -0.000373866
0.635621 0.240146 0.70764 0.000629425 0.998497 -0.00117904
0.600708 0.240136 0.706607 0.000770214 0.998269 -0.00136304
0.633213 0.240145 0.708825 0.000464879 0.998765 -0.000967681
0.632489 0.240145 0.697456 0.00204122 0.996199 -0.0029945
0.634795 0.240146 0.712726 -7.58958e-05 0.999646 -0.00027225
0.618468 0.240141 0.696664 0.00215012 0.996023 -0.00313572
0.610415 0.240139 0.706749 0.000751205 0.9983 -0.00133777
0.599151 0.240135 0.713127 -0.000133837 0.999741 -0.000200804
0.562077 0.240124 0.713033 -0.000123299 0.999724 -0.000217526
0.574829 0.240128 0.701041 0.00154027 0.997016 -0.00235534
0.574434 0.240128 0.704384 0.00107676 0.997771 -0.00175943
0.62206 0.240142 0.702225 0.00137929 0.997277 -0.00214433
0.552032 0.240121 0.708597 0.000491111 0.998725 -0.00100836
0.64808 0.24015 0.711327 0.000118963 0.999328 -0.000521651
0.644088 0.23634 0.670432 0.112444 -0.549677 -0.122758
0.551742 0.237501 0.633446 0.160331 0.181427 -0.406186
0.575237 0.237311 0.642692 0.107844 -0.0433767 -0.271332
0.516776 0.237684 0.748934 -0.50329 -0.39913 0.311891
0.369705 0.235695 0.759114 -0.375572 -0.0487443 0.802593
0.454894 0.23567 0.722928 -0.0720918 -0.816466 0.155119
0.448673 0.235672 0.757728 -0.0926081 -0.390573 0.578941
0.369345 0.235695 0.762808 -0.376671 -0.00478458 0.846784
0.397095 0.235687 0.772339 -0.276722 -0.00969067 0.885497
0.444216 0.235673 0.751198 -0.108917 -0.447278 0.514186
0.395607 0.235687 0.745688 -0.283421 -0.310048 0.577345
0.406705 0.235684 0.768975 -0.242452 -0.0880258 0.820876
0.425256 0.235678 0.76094 -0.176372 -0.256991 0.678064
0.419596 0.23568 0.747784 -0.197333 -0.384943 0.538875
0.451105 0.235671 0.745743 -0.0845025 -0.538439 0.432223
0.428916 0.235677 0.766024 -0.162996 -0.213633 0.727974
0.465108 0.235667 0.728917 -0.0351762 -0.789744 0.198413
0.449041 0.235672 0.744353 -0.0919709 -0.545919 0.421357
0.458176 0.235669 0.741453 -0.0593807 -0.616963 0.363411
0.43917 0.235675 0.734872 -0.127836 -0.61421 0.336278
0.381461 0.235692 0.754684 -0.333662 -0.148215 0.719834
0.425143 0.235678 0.772729 -0.176175 -0.120944 0.816402
0.399146 0.235686 0.771297 -0.269425 -0.0301374 0.86791
0.427454 0.235678 0.760817 -0.1685 -0.267487 0.67084
0.448455 0.235672 0.727855 -0.0949175 -0.733231 0.229723
0.458793 0.235669 0.73335 -0.0575844 -0.712699 0.266909
0.36694 0.235696 0.761033 -0.385384 -0.0152642 0.832326
0.397242 0.235687 0.758518 -0.276904 -0.169247 0.723277
0.453177 0.23567 0.728342 -0.0779672 -0.747121 0.223018
0.404352 0.235685 0.773381 -0.250659 -0.0276543 0.878638
0.432384 0.235676 0.754681 -0.151144 -0.358391 0.586052
0.415797 0.235681 0.760109 -0.210316 -0.227521 0.693171
0.445621 0.235673 0.729074 -0.105014 -0.707516 0.251439
0.382066 0.235691 0.761953 -0.331121 -0.0671123 0.803362
0.393873 0.235688 0.743721 -0.289738 -0.325505 0.558876
0.405847 0.235684 0.767813 -0.245587 -0.0978547 0.809517
0.449962 0.235671 0.75506 -0.0881214 -0.426575 0.544317
0.375364 0.235693 0.765133 -0.354979 -0.00288469 0.858199
0.425607 0.235678 0.766874 -0.17481 -0.190199 0.746621
0.381363 0.235692 0.767182 -0.333372 -0.00407298 0.866438
0.420774 0.23568 0.771316 -0.191905 -0.119164 0.811333
0.387495 0.23569 0.748903 -0.312331 -0.239599 0.636296
0.42785 0.235678 0.77294 -0.166459 -0.129689 0.811762
0.422115 0.23568 0.743514 -0.188524 -0.444443 0.482263
0.403693 0.235685 0.742377 -0.254608 -0.381501 0.517332
0.440912 0.235674 0.744722 -0.121089 -0.508124 0.447033
0.404103 0.235685 0.760398 -0.252218 -0.175933 0.727276
0.43994 0.235674 0.732219 -0.125213 -0.647897 0.303193
0.373991 0.235694 0.764105 -0.359953 -0.00903198 0.849778
0.437506 0.235675 0.751547 -0.132948 -0.415571 0.5359
0.424875 0.235679 0.753487 -0.178119 -0.341142 0.591786
0.407928 0.235684 0.773493 -0.237837 -0.0411181 0.870562
0.401308 0.235686 0.765623 -0.261966 -0.104315 0.795792
0.411899 0.235682 0.771977 -0.223683 -0.0749425 0.842377
0.404151 0.235685 0.765867 -0.251765 -0.11323 0.791192
0.409673 0.235683 0.762108 -0.232163 -0.179261 0.732661
0.422783 0.235679 0.771564 -0.184693 -0.12461 0.808952
0.453107 0.23567 0.745041 -0.0773636 -0.554774 0.418745
0.388393 0.23569 0.744638 -0.309331 -0.292352 0.584
0.433772 0.235676 0.758017 -0.146001 -0.325754 0.621465
0.451953 0.235671 0.739961 -0.0817588 -0.608436 0.362292
0.426646 0.235678 0.743881 -0.172266 -0.458916 0.474663
0.429524 0.235677 0.778756 -0.160164 -0.0697167 0.875459
0.35993 0.235698 0.759393 -0.41059 -0.00519626 0.831536
0.453073 0.23567 0.728171 -0.0783485 -0.748651 0.221297
0.381636 0.235691 0.767012 -0.332403 -0.00714688 0.863738
0.435341 0.235676 0.733172 -0.141648 -0.617958 0.326431
0.42741 0.235678 0.750509 -0.169186 -0.385842 0.550267
0.413208 0.235682 0.753277 -0.219946 -0.295404 0.619979
0.462317 0.235668 0.770472 0.0361572 -0.676125 0.274408
0.459313 0.235668 0.771365 0.0157463 -0.607479 0.343886
0.463661 0.235667 0.758474 0.0181126 -0.714104 0.247768
0.451208 0.235671 0.767345 -0.0543934 -0.42629 0.533812
0.463698 0.235667 0.738876 -0.0275297 -0.727224 0.254415
0.465836 0.235666 0.770806 0.063305 -0.755688 0.192476
0.465749 0.235667 0.732532 -0.0270286 -0.777688 0.209173
0.43959 0.235674 0.778932 -0.114285 -0.15568 0.799428
0.469539 0.235665 0.769997 0.0891563 -0.840141 0.106703
0.442889 0.235673 0.770063 -0.110351 -0.236013 0.726147
0.441051 0.235674 0.772617 -0.118138 -0.192749 0.767893
0.446343 0.235672 0.770186 -0.0841825 -0.314236 0.645805
0.460266 0.235668 0.742154 -0.0455613 -0.647376 0.332935
0.450659 0.235671 0.773357 -0.0444236 -0.410064 0.544285
0.468033 0.235666 0.749053 0.0287922 -0.819108 0.149753
0.452173 0.235671 0.756182 -0.0733192 -0.455156 0.51566
0.44801 0.235672 0.762587 -0.0895064 -0.356765 0.609989
0.471886 0.235665 0.748081 0.0553847 -0.90706 0.0605579
0.34666 0.235702 0.727997 -0.26967 -0.5729 0.245541
0.348989 0.235701 0.727748 -0.176236 -0.651316 0.259271
0.348855 0.235701 0.720364 -0.103226 -0.822492 0.114126
0.34615 0.235702 0.709064 -0.193131 -0.803066 -0.00948127
0.341489 0.235703 0.716852 -0.392272 -0.600234 0.0312218
0.347154 0.235702 0.712519 -0.133287 -0.86426 0.000771436
0.346037 0.235702 0.716176 -0.175105 -0.82175 0.0171643
0.388433 0.235689 0.699846 -0.00769551 -0.990734 -0.00493134
0.360739 0.235697 0.695641 -0.0098619 -0.988022 -0.00637515
0.351201 0.235701 0.711238 -0.00178963 -0.998127 -0.000984544
0.372863 0.235694 0.692242 -0.0116247 -0.985815 -0.00755327
0.40309 0.235685 0.693258 -0.0111087 -0.986462 -0.00721169
0.421154 0.23568 0.707459 -0.00376745 -0.995653 -0.00231178
0.446456 0.235672 0.712542 -0.00114556 -0.998936 -0.000563621
0.394888 0.235688 0.704517 -0.00528065 -0.993758 -0.0033196
0.423673 0.235679 0.710001 -0.0024529 -0.997299 -0.00143432
0.357964 0.235698 0.700378 -0.00741023 -0.991091 -0.00473795
0.432954 0.235676 0.707518 -0.00374071 -0.995687 -0.00229506
0.384219 0.235691 0.711342 -0.00174651 -0.998182 -0.000958908
0.378558 0.235692 0.692333 -0.0115791 -0.985872 -0.00752341
0.349814 0.2357 0.677187 -0.0194064 -0.976073 -0.0127468
0.385812 0.23569 0.696846 -0.00924651 -0.988793 -0.00596666
0.44683 0.235672 0.709311 -0.00281761 -0.996843 -0.00168005
0.433599 0.235676 0.707655 -0.00367 -0.995775 -0.00224791
0.358187 0.235699 0.713549 -0.000596249 -0.999622 -0.000188414
0.390198 0.235689 0.689847 -0.0128691 -0.984258 -0.00838583
0.369724 0.235695 0.70134 -0.00691644 -0.991709 -0.00440938
0.373672 0.235694 0.709859 -0.00251022 -0.997226 -0.00146782
0.384463 0.235691 0.700653 -0.00727641 -0.991259 -0.00465113
0.438318 0.235675 0.70938 -0.0027792 -0.99689 -0.00165359
0.353864 0.235699 0.683397 -0.0161943 -0.980094 -0.0106025
0.385657 0.23569 0.696776 -0.00928311 -0.988747 -0.00599108
0.358559 0.235698 0.699306 -0.00796526 -0.990396 -0.00510859
0.376559 0.235693 0.703547 -0.00577692 -0.993136 -0.0036492
0.35371 0.235699 0.685173 -0.0152756 -0.981244 -0.00998909
0.387413 0.23569 0.707661 -0.00365173 -0.995797 -0.00223129
0.447451 0.235672 0.70611 -0.00447354 -0.994769 -0.00278574
0.401738 0.235685 0.692803 -0.0113438 -0.986167 -0.00736852
0.419699 0.23568 0.70168 -0.00675692 -0.99191 -0.00430765
0.354446 0.235699 0.689044 -0.0132731 -0.983751 -0.00865213
0.364449 0.235696 0.691297 -0.0121108 -0.985206 -0.00787702
0.424958 0.235679 0.703989 -0.0055638 -0.993404 -0.00351153
0.41938 0.23568 0.707683 -0.00365067 -0.995799 -0.00223364
0.365318 0.235696 0.682702 -0.016558 -0.979639 -0.0108464
0.376005 0.240142 0.765455 -0.243805 0.487533 0.403731
0.426898 0.240127 0.775197 -0.0649602 0.749694 0.20983
0.372237 0.240143 0.762933 -0.238641 0.506091 0.378718
0.450876 0.24012 0.780325 0.0138033 0.861866 0.130238
0.386556 0.240139 0.766914 -0.200996 0.553707 0.351272
0.410168 0.240132 0.773214 -0.136223 0.63779 0.300244
0.389859 0.240138 0.76505 -0.166364 0.602962 0.300172
0.384806 0.24014 0.762191 -0.171421 0.562436 0.320896
0.385414 0.24014 0.761518 -0.164463 0.555571 0.322301
0.422314 0.240129 0.767867 -0.0368813 0.683814 0.226663
0.405453 0.240134 0.765229 -0.0968202 0.62825 0.269356
0.452415 0.24012 0.776653 0.0446934 0.830052 0.134822
0.447822 0.240121 0.776828 0.0227924 0.825235 0.143024
0.445511 0.240122 0.776595 0.0137738 0.819097 0.148386
0.429902 0.240127 0.76681 0.00409944 0.682911 0.216054
0.395032 0.240137 0.763166 -0.131171 0.588921 0.297399
0.420554 0.240129 0.770043 -0.058434 0.706312 0.221721
0.380415 0.240141 0.762584 -0.193771 0.560435 0.327873
0.46896 0.236431 0.771881 0.150112 -0.482041 0.179944
0.43829 0.236724 0.784765 -0.0987257 0.208176 0.753572
0.392873 0.235964 0.771678 -0.291596 0.0358821 0.854545
0.420982 0.237785 0.78176 -0.188392 0.272674 0.671479
0.418494 0.239322 0.780868 -0.195725 0.471647 0.476608
0.373603 0.23681 0.764766 -0.360127 0.144749 0.719769
0.41288 0.238784 0.778854 -0.216521 0.401791 0.534826
0.347399 0.240151 0.686208 -0.232416 0.678288 -0.0978463
0.349177 0.24015 0.743417 -0.306552 0.462277 0.313681
0.342852 0.240152 0.691293 -0.940763 0.023961 -0.193489
0.348686 0.24015 0.720079 -0.241457 0.581939 0.15237
0.340647 0.236473 0.719006 -0.522819 -0.468114 0.0424097
0.37999 0.240141 0.70498 -0.0761208 0.797132 -0.187598
0.368837 0.240144 0.708284 -0.0485203 0.870401 -0.119843
0.396479 0.240136 0.700103 -0.116864 0.688974 -0.287616
0.461457 0.240117 0.709789 -0.0364336 0.902502 -0.0901603
0.410755 0.240132 0.706059 -0.067284 0.820596 -0.1659
0.393821 0.240137 0.684005 -0.251074 0.332692 -0.617084
0.408659 0.240133 0.709725 -0.036703 0.901778 -0.0908282
0.384354 0.24014 0.710223 -0.032427 0.913126 -0.080334
0.395157 0.240137 0.70489 -0.0769515 0.79493 -0.189635
0.449559 0.240121 0.704532 -0.0802092 0.78629 -0.197626
0.411762 0.240132 0.694712 -0.161894 0.569438 -0.398157
0.35749 0.240148 0.68668 -0.228589 0.392375 -0.561892
0.39224 0.240138 0.691041 -0.192405 0.488439 -0.473059
0.408335 0.240133 0.699244 -0.124086 0.669805 -0.305343
0.439674 0.240123 0.704207 -0.0828622 0.779246 -0.20414
0.452617 0.24012 0.710618 -0.0294785 0.920964 -0.0730875
0.36754 0.240145 0.692212 -0.182516 0.514687 -0.448786
0.41951 0.240129 0.702619 -0.0960018 0.744361 -0.236398
0.366016 0.240145 0.682462 -0.263803 0.298896 -0.648336
0.442784 0.240123 0.707846 -0.0525365 0.859751 -0.129693
0.430987 0.240126 0.703337 -0.0900782 0.760088 -0.221855
0.368122 0.240145 0.675018 -0.325873 0.13412 -0.800711
0.462325 0.240117 0.713335 -0.00687606 0.980967 -0.0176
0.422633 0.240129 0.708087 -0.0504282 0.865344 -0.12452
0.430965 0.240126 0.697935 -0.135116 0.640529 -0.332416
0.363463 0.240146 0.675342 -0.323152 0.141343 -0.794032
0.366707 0.240145 0.676828 -0.310779 0.17419 -0.763657
0.424879 0.240128 0.705693 -0.0703993 0.812328 -0.173547
0.374981 0.240143 0.707532 -0.0548239 0.853668 -0.135317
0.35706 0.240148 0.70071 -0.111608 0.702922 -0.274716
0.374791 0.240143 0.709511 -0.0383197 0.897481 -0.0948011
0.38346 0.24014 0.703495 -0.0885259 0.764201 -0.21805
0.405569 0.240134 0.709774 -0.0362767 0.902909 -0.0897819
0.364724 0.240146 0.69536 -0.156254 0.584403 -0.384317
0.355934 0.240148 0.688791 -0.210984 0.43911 -0.518674
0.36046 0.240147 0.684781 -0.244441 0.350295 -0.600805
0.388687 0.240139 0.713727 -0.00323863 0.990612 -0.00867958
0.380267 0.240141 0.689061 -0.20885 0.444779 -0.513432
0.401726 0.240135 0.70852 -0.0467138 0.875202 -0.115404
0.365757 0.240145 0.697261 -0.140408 0.626469 -0.345416
0.418954 0.24013 0.709401 -0.0394555 0.894473 -0.0975839
0.370278 0.240144 0.678874 -0.293738 0.219428 -0.721823
0.428405 0.240127 0.711534 -0.0217202 0.941555 -0.0540448
0.443217 0.240122 0.70983 -0.0360013 0.903646 -0.0891012
0.359713 0.240147 0.676349 -0.314737 0.163682 -0.773374
0.357019 0.240148 0.713211 -0.00738533 0.979598 -0.0188631
0.410952 0.240132 0.699197 -0.124496 0.668718 -0.306348
0.420236 0.237657 0.644167 -0.188753 -0.497644 -0.464622
0.371926 0.236382 0.663112 -0.352335 -0.117245 -0.804578
0.400324 0.238253 0.651975 -0.24903 -0.340854 -0.608808
0.490888 0.238265 0.733368 0.185823 0.0574563 0.102682
0.482469 0.276945 0.337134 0.0450164 0.415436 -0.682892
0.472924 0.276965 0.336454 0.00711661 0.433696 -0.727445
0.469576 0.275629 0.410185 -0.360181 0.491693 -0.0806115
0.469721 0.275577 0.413075 -0.373387 0.493424 -0.0541456
0.4681 0.276381 0.368832 -0.168641 0.465748 -0.456909
0.477244 0.276808 0.34495 -0.0149187 0.431143 -0.63395
0.525316 0.276782 0.344301 0.195463 0.336332 -0.446049
0.483183 0.276744 0.348226 -0.00498895 0.42177 -0.580676
0.462813 0.275505 0.41731 -0.423444 0.509939 -0.044058
0.484569 0.277152 0.325641 0.109078 0.403296 -0.777359
0.488103 0.276467 0.36327 -0.0557759 0.422607 -0.426116
0.506126 0.276667 0.351476 0.0783809 0.379003 -0.459116
0.474029 0.276014 0.388806 -0.238668 0.468042 -0.254133
0.464869 0.275905 0.395213 -0.308827 0.49049 -0.233661
0.524801 0.277 0.332315 0.25061 0.328981 -0.555467
0.481168 0.276736 0.348731 -0.0160929 0.426077 -0.584272
0.469823 0.275989 0.390333 -0.264112 0.477363 -0.257405
0.472467 0.276708 0.350663 -0.0628545 0.444503 -0.602033
0.531021 0.277132 0.324833 0.313237 0.311553 -0.597413
0.472102 0.275663 0.408219 -0.339883 0.485364 -0.0880357
0.518265 0.276997 0.332788 0.220161 0.342141 -0.577569
0.471463 0.27704 0.332373 0.0203454 0.433718 -0.769873
0.473539 0.27557 0.413298 -0.357997 0.486087 -0.03676
0.514664 0.276503 0.360148 0.0736965 0.368292 -0.347049
0.462736 0.276907 0.340097 -0.054245 0.456234 -0.735872
0.477586 0.276656 0.353294 -0.053374 0.43629 -0.557842
0.471784 0.275596 0.411918 -0.358957 0.488569 -0.0561979
0.488548 0.276202 0.377806 -0.123421 0.431871 -0.29414
0.46558 0.275417 0.422033 -0.434115 0.507801 0.00939388
0.522729 0.277126 0.325468 0.274439 0.328274 -0.625134
0.521614 0.277123 0.325693 0.268554 0.33062 -0.627612
0.495177 0.276586 0.356407 0.00757037 0.403935 -0.459074
0.494161 0.276688 0.350812 0.0299703 0.402025 -0.513275
0.533477 0.277003 0.33182 0.290387 0.311607 -0.524943
0.504942 0.276526 0.359278 0.035942 0.386768 -0.394017
0.50911 0.276467 0.36236 0.039161 0.380737 -0.349617
0.502247 0.277064 0.329793 0.165428 0.371493 -0.668934
0.501118 0.277062 0.329938 0.159866 0.373811 -0.672186
0.473073 0.277091 0.329495 0.0410645 0.428549 -0.789166
0.503747 0.276964 0.335225 0.145899 0.372338 -0.614249
0.497795 0.276661 0.352178 0.0391018 0.395846 -0.486405
0.464773 0.276509 0.361911 -0.149865 0.467452 -0.532302
0.465414 0.276322 0.372217 -0.196421 0.473382 -0.43742
0.471984 0.276008 0.389238 -0.249552 0.472358 -0.258511
0.492317 0.276227 0.376313 -0.100023 0.423431 -0.292322
0.513175 0.276482 0.361372 0.0614141 0.37207 -0.342085
0.479737 0.27712 0.32762 0.0787695 0.414162 -0.779108
0.517234 0.27687 0.339825 0.18204 0.349073 -0.518704
0.471833 0.275688 0.406845 -0.334469 0.484934 -0.101427
0.517528 0.276848 0.341029 0.177544 0.349336 -0.506735
0.510722 0.276742 0.347163 0.118845 0.366972 -0.479226
0.481441 0.276458 0.364015 -0.088063 0.436202 -0.446294
0.467519 0.277122 0.328054 0.0240075 0.438448 -0.824452
0.466122 0.276495 0.36263 -0.147488 0.465306 -0.520425
0.480918 0.276596 0.35642 -0.0539728 0.431932 -0.516413
0.471621 0.27664 0.354415 -0.0844591 0.448781 -0.571841
0.469271 0.275962 0.391849 -0.273745 0.479503 -0.246053
0.463184 0.27536 0.425273 -0.459953 0.514764 0.0287578
0.461791 0.275813 0.400359 -0.346722 0.50012 -0.199983
0.516614 0.276757 0.346059 0.149531 0.354638 -0.465371
0.461923 0.275748 0.403936 -0.363277 0.502357 -0.167412
0.516555 0.276598 0.354854 0.107186 0.360888 -0.386839
0.463995 0.275392 0.423456 -0.447758 0.511904 0.0157538
0.500219 0.276703 0.349745 0.0611977 0.38939 -0.498417
0.493116 0.277012 0.332991 0.110753 0.391646 -0.677088
0.462492 0.276724 0.350171 -0.103515 0.463741 -0.646628
0.505899 0.276967 0.334933 0.156574 0.36791 -0.608183
0.499561 0.276556 0.357846 0.0195899 0.396332 -0.42852
0.490302 0.276803 0.344663 0.042761 0.405311 -0.583899
0.466634 0.27636 0.370032 -0.180708 0.469464 -0.452069
0.48789 0.276571 0.357509 -0.0291216 0.419006 -0.478568
0.484204 0.276134 0.381746 -0.161005 0.443145 -0.27636
0.474126 0.275822 0.39935 -0.288711 0.475205 -0.15931
0.472546 0.276391 0.368114 -0.146032 0.45652 -0.445427
0.514113 0.276767 0.345611 0.14089 0.359235 -0.479463
0.525141 0.277026 0.330869 0.258994 0.327305 -0.567044
0.490247 0.276266 0.374219 -0.0989297 0.426034 -0.319416
0.496034 0.276244 0.375177 -0.0785634 0.415344 -0.287521
0.521916 0.27684 0.341295 0.195192 0.340908 -0.486673
0.476207 0.27594 0.3928 -0.248388 0.466552 -0.209589
0.463134 0.276843 0.343575 -0.0691797 0.45788 -0.703115
0.49673 0.276824 0.343233 0.0773207 0.391696 -0.5708
0.511416 0.276488 0.361092 0.0551698 0.375327 -0.351677
0.49448 0.277004 0.333393 0.114709 0.38925 -0.667992
0.503447 0.276882 0.339745 0.122971 0.37608 -0.574971
0.487847 0.276251 0.375171 -0.113836 0.43141 -0.320562
0.52113 0.27822 0.168237 0.290799 0.239273 -0.0376202
0.51654 0.278223 0.210227 0.517401 0.131608 0.197639
0.51752 0.278223 0.15907 0.175887 0.278163 -0.0588386
0.501054 0.278235 0.172824 0.0378145 0.29281 0.115985
0.536936 0.278208 0.162616 0.476016 0.203007 -0.168376
0.502826 0.278234 0.190976 0.189078 0.233734 0.193144
0.540389 0.278205 0.147882 0.422634 0.234642 -0.262963
0.531383 0.278212 0.21036 0.728921 0.0817054 0.101306
0.519721 0.278221 0.158046 0.200002 0.27382 -0.0782312
0.540666 0.278205 0.189569 0.716196 0.111627 -0.0609899
0.525211 0.278217 0.17301 0.381857 0.211681 -0.0409481
0.526641 0.278215 0.192056 0.534476 0.15113 0.0428075
0.477611 0.278253 0.197697 -0.121996 0.298165 0.39076
0.542502 0.278203 0.213647 0.909516 0.0349888 0.0447186
0.481356 0.27825 0.197239 -0.0720509 0.287017 0.364049
0.525435 0.278216 0.210274 0.643928 0.1018 0.139749
0.530835 0.278212 0.18543 0.547947 0.156546 -0.0169881
0.484226 0.278248 0.19414 -0.0528496 0.286516 0.330147
0.49022 0.278244 0.205005 0.107669 0.234704 0.344096
0.517258 0.278223 0.18196 0.331196 0.212 0.0547672
0.512986 0.278226 0.176987 0.236029 0.240816 0.0583734
0.526568 0.278216 0.16272 0.329628 0.237289 -0.100121
0.534459 0.278209 0.195699 0.670702 0.114383 0.0095388
0.539648 0.278205 0.152587 0.444809 0.223334 -0.23512
0.541235 0.278204 0.143154 0.40179 0.245667 -0.291606
0.49684 0.278238 0.177987 0.0138962 0.291746 0.168762
0.470822 0.278259 0.205992 -0.160694 0.296519 0.475672
0.533577 0.27821 0.20706 0.737127 0.0840501 0.0708386
0.519545 0.278221 0.172296 0.296513 0.232671 -0.00741737
0.527723 0.278215 0.193452 0.559524 0.143433 0.042564
0.50981 0.278228 0.202403 0.367552 0.176974 0.203366
0.528972 0.278214 0.20408 0.651089 0.108139 0.086356
0.475883 0.278255 0.212201 -0.0457615 0.261456 0.472955
0.513766 0.278225 0.205837 0.44753 0.153722 0.19431
0.509396 0.278229 0.215306 0.451317 0.140566 0.269154
0.495562 0.278239 0.200368 0.151254 0.230462 0.286522
0.509115 0.278229 0.183268 0.224745 0.235333 0.114374
0.504561 0.278233 0.183102 0.158977 0.25101 0.14332
0.519435 0.278221 0.208232 0.544614 0.127794 0.168971
0.541423 0.278204 0.192787 0.749285 0.0996787 -0.0501999
0.485627 0.278247 0.189964 -0.0619944 0.294075 0.30058
0.530047 0.278213 0.18454 0.530583 0.16178 -0.0161871
0.514267 0.278225 0.195164 0.380495 0.183307 0.138857
0.477438 0.278253 0.195294 -0.141159 0.305784 0.380146
0.477177 0.278254 0.203687 -0.0865527 0.282075 0.422879
0.474007 0.278256 0.199841 -0.158245 0.303911 0.424791
0.542977 0.278203 0.16123 0.552084 0.186918 -0.214623
0.526981 0.278215 0.182978 0.476232 0.176582 -0.00378977
0.525538 0.278216 0.197725 0.558206 0.138208 0.0777312
0.518304 0.278222 0.1882 0.389394 0.190235 0.0784335
0.539844 0.278205 0.1756 0.60748 0.15528 -0.123904
0.515617 0.278224 0.186888 0.342153 0.20304 0.089583
0.497379 0.278238 0.176206 0.00917801 0.295161 0.156534
0.467071 0.278261 0.213782 -0.159807 0.286222 0.538262
0.510939 0.278228 0.198802 0.358556 0.183752 0.17839
0.4926 0.278242 0.200632 0.111058 0.239571 0.307171
0.539563 0.250768 0.36959 0.0586699 0.749314 -0.0756771
0.540118 0.250268 0.356616 0.0500048 0.778481 -0.104977
0.539398 0.240332 0.373269 0.0949757 0.571138 -0.0639887
0.54115 0.250861 0.33252 0.0290379 0.857115 -0.159879
0.537113 0.206596 0.426097 0.244732 -0.122231 0.0667473
0.539159 0.221803 0.378571 0.158462 0.25832 -0.0460268
0.539476 0.25174 0.371634 0.0571781 0.759059 -0.0713473
0.540846 0.243919 0.339526 0.0567974 0.725513 -0.141751
0.541103 0.250179 0.333627 0.0320984 0.842975 -0.157147
0.540269 0.237679 0.352896 0.0873431 0.586952 -0.1094
0.53811 0.208986 0.402857 0.218696 -0.0172041 0.0132161
0.537295 0.187898 0.421565 0.30098 -0.409573 0.0624344
0.537295 0.251819 0.422548 0.097211 0.614338 0.0442327
0.540043 0.254098 0.358436 0.0391892 0.83478 -0.102068
0.537787 0.266267 0.41129 0.0420702 0.878687 0.0140537
0.537229 0.251874 0.424091 0.0982579 0.610787 0.0477201
0.537712 0.203206 0.412047 0.244461 -0.136387 0.0359286
0.542664 0.249795 0.297178 0.00448539 0.941328 -0.239786
0.537037 0.234308 0.428287 0.157787 0.316612 0.0628617
0.537865 0.246507 0.409153 0.10361 0.567425 0.0155168
0.541139 0.244845 0.332701 0.0484332 0.75996 -0.157545
0.541658 0.242093 0.320527 0.0476048 0.750674 -0.184307
0.537417 0.269837 0.419975 0.0375169 0.911132 0.0326309
0.541556 0.243625 0.322946 0.0446172 0.768341 -0.179305
0.538834 0.22169 0.38615 0.164822 0.23477 -0.0287801
0.538351 0.202487 0.397115 0.234946 -0.105115 0.00225439
0.538823 0.225421 0.386453 0.153123 0.293826 -0.0292865
0.54016 0.250539 0.355635 0.0483608 0.785649 -0.107291
0.539345 0.221244 0.374201 0.156794 0.261866 -0.0557708
0.537536 0.218336 0.41641 0.199498 0.0941255 0.0409987
0.53846 0.267369 0.395584 0.0261163 0.941422 -0.0219629
0.540915 0.23436 0.337754 0.085984 0.577052 -0.142719
0.537511 0.226244 0.417104 0.174744 0.219146 0.0400471
0.538065 0.245538 0.404476 0.103009 0.565277 0.00520615
0.539096 0.244477 0.380389 0.0873469 0.617294 -0.049146
0.538556 0.227897 0.392727 0.150165 0.315603 -0.0158313
0.538388 0.214476 0.396457 0.196064 0.0893302 -0.00307118
0.54244 0.247705 0.302364 0.0152749 0.892897 -0.227342
0.539716 0.217238 0.365496 0.162725 0.222485 -0.0742558
0.538381 0.256012 0.397258 0.0637822 0.754207 -0.0145294
0.538397 0.264532 0.397011 0.0363245 0.891758 -0.0178146
0.539733 0.233701 0.365346 0.109925 0.487353 -0.0798573
0.538391 0.260456 0.397098 0.049436 0.826041 -0.0163137
0.541327 0.229395 0.328075 0.094212 0.525063 -0.163109
0.539414 0.241024 0.372906 0.0924734 0.583298 -0.0650329
0.539738 0.228887 0.365149 0.125174 0.41059 -0.0787672
0.537254 0.255622 0.42357 0.0858526 0.67248 0.0453389
0.537876 0.206121 0.408281 0.232156 -0.0787776 0.0264462
0.538089 0.206411 0.403297 0.227284 -0.0598252 0.0150367
0.537907 0.254565 0.408311 0.0771608 0.699259 0.0110301
0.540381 0.239051 0.350293 0.0808949 0.616444 -0.115748
0.537374 0.229011 0.420346 0.168454 0.254302 0.0465247
0.53775 0.190298 0.41097 0.284916 -0.340637 0.0376106
0.537295 0.203859 0.421792 0.250084 -0.153849 0.0578471
0.538495 0.252219 0.394546 0.0737741 0.701057 -0.0194753
0.538723 0.23879 0.389012 0.112367 0.501228 -0.027748
0.540362 0.242917 0.350808 0.0689316 0.677063 -0.115815
0.537301 0.202026 0.421635 0.255826 -0.182841 0.0580765
0.538737 0.22913 0.388538 0.142903 0.347429 -0.0257364
0.538249 0.215078 0.399705 0.196705 0.0896972 0.0041116
0.540537 0.255794 0.346924 0.0246525 0.895035 -0.128749
0.539452 0.232444 0.371876 0.119116 0.448428 -0.0646285
0.538979 0.241115 0.383073 0.100228 0.555601 -0.0419768
0.540606 0.256557 0.345329 0.0209469 0.911873 -0.132616
0.537542 0.229636 0.416436 0.163361 0.275549 0.0374461
0.539635 0.220598 0.367421 0.153498 0.270929 -0.0709572
0.5388 0.219338 0.386902 0.172942 0.194839 -0.0263225
0.537038 0.185597 0.427521 0.313056 -0.463609 0.0766939
0.540863 0.258553 0.339356 0.00983243 0.961066 -0.146816
0.541713 0.253456 0.319436 0.0103826 0.936307 -0.190417
0.540197 0.247252 0.354721 0.0581556 0.735475 -0.108314
0.538166 0.240876 0.402052 0.11601 0.497341 0.00119391
0.540339 0.251922 0.351485 0.0406507 0.819767 -0.117156
0.537739 0.256854 0.412264 0.0729616 0.724702 0.0192734
0.540728 0.257364 0.342485 0.0161135 0.932995 -0.13933
0.538678 0.250349 0.390226 0.0763387 0.683413 -0.0286869
0.540967 0.2548 0.336867 0.0198733 0.907917 -0.151268
0.541233 0.232745 0.330307 0.0852586 0.57247 -0.159112
0.541059 0.255131 0.334729 0.0171218 0.919368 -0.156228
0.539877 0.245635 0.36216 0.0692163 0.688171 -0.0909074
0.538434 0.224592 0.395541 0.162968 0.254446 -0.00838613
0.542012 0.239981 0.312245 0.0478125 0.740486 -0.202437
0.539837 0.226505 0.36281 0.130944 0.379043 -0.0833175
0.53732 0.195748 0.421101 0.275492 -0.282147 0.0588728
0.53723 0.250568 0.424054 0.102408 0.589916 0.0480538
0.537343 0.246083 0.421343 0.114612 0.525661 0.0433309
0.540084 0.216593 0.356883 0.157974 0.23682 -0.0936054
0.537669 0.225396 0.413414 0.174536 0.216114 0.0319393
0.538456 0.19664 0.394593 0.251661 -0.1918 -0.00160338
0.540033 0.230097 0.358283 0.115869 0.449714 -0.0947428
0.541562 0.251293 0.322908 0.0200496 0.891618 -0.181841
0.537564 0.272532 0.416597 0.0262212 0.964101 0.0240997
0.541429 0.233472 0.325743 0.0793209 0.597235 -0.169707
0.540179 0.237931 0.354993 0.0881965 0.584984 -0.104719
0.537784 0.21224 0.410517 0.214344 0.0130982 0.0295675
0.537551 0.262316 0.416723 0.0590136 0.799638 0.0276519
0.540219 0.215356 0.353704 0.159418 0.226061 -0.100428
0.53858 0.230357 0.392205 0.141879 0.356618 -0.0178021
0.540817 0.2328 0.340018 0.0927653 0.545514 -0.13708
0.537989 0.194836 0.405466 0.266038 -0.251956 0.0236631
0.538292 0.22178 0.398794 0.17454 0.199951 -0.000100441
0.537589 0.185076 0.414647 0.304537 -0.435066 0.0476284
0.538746 0.217979 0.388136 0.178268 0.169468 -0.0230859
0.539207 0.250495 0.37788 0.0661021 0.721162 -0.0567678
0.540902 0.248436 0.338274 0.0413519 0.801658 -0.14604
0.537212 0.20666 0.423788 0.242702 -0.114587 0.0614858
0.539196 0.254495 0.378205 0.0535595 0.784479 -0.057308
0.541918 0.236605 0.314381 0.0603027 0.680149 -0.19651
0.538345 0.245815 0.397931 0.0969448 0.588489 -0.00974284
0.540756 0.230307 0.341413 0.101847 0.501466 -0.133116
0.542746 0.236056 0.295039 0.0511041 0.747015 -0.00346242
0.540587 0.21448 0.345099 0.157568 0.246702 -0.00225174
0.541465 0.225142 0.324771 0.107501 0.47689 -0.044363
0.54075 0.218923 0.341369 0.139436 0.324307 -0.0644521
0.541962 0.227087 0.31321 0.0938368 0.549247 0.0218762
0.540379 0.216674 0.349998 0.152502 0.258962 -0.0964269
0.543468 0.247077 0.278341 0.0018395 0.968274 -0.0876131
0.542888 0.243913 0.291837 0.0210004 0.871116 -0.145396
0.541851 0.226225 0.315767 0.0984118 0.527104 0.0166806
0.541715 0.233658 0.319063 0.0735836 0.620041 -0.177134
0.539071 0.197815 0.380234 0.23776 -0.126073 0.0319037
0.540122 0.20993 0.355882 0.180149 0.140324 -0.00413495
0.541366 0.225605 0.327098 0.107179 0.474473 -0.0764156
0.539905 0.209176 0.360942 0.185778 0.110042 -0.035266
0.540223 0.213458 0.353592 0.166142 0.199337 -0.0598292
0.538815 0.194538 0.386159 0.252964 -0.195579 0.0479033
0.543835 0.245715 0.269764 0.00214836 0.971757 0.0257026
0.543868 0.229337 0.268736 0.0552075 0.637658 0.0309413
0.543896 0.200046 0.267616 0.150051 0.0424467 0.0195145
0.543962 0.178767 0.265746 0.219026 -0.393348 0.0417467
0.541557 0.258897 0.323148 0.00464279 0.885959 -0.368476
0.538796 0.269281 0.387786 0.018288 0.929575 -0.134654
0.538695 0.269669 0.390137 0.0187785 0.93094 -0.126708
0.539852 0.2661 0.363076 0.0126159 0.895498 -0.267986
0.542084 0.255908 0.31081 0.00262029 0.899857 -0.356989
0.542472 0.25446 0.301718 0.000694045 0.893455 -0.390552
0.541597 0.262809 0.322287 0.00286792 0.815236 -0.518141
0.540632 0.265634 0.344866 0.00800375 0.845751 -0.401745
0.540416 0.271493 0.34999 0.00785851 0.781415 -0.485628
0.540413 0.264718 0.349952 0.0095504 0.87382 -0.34272
0.540082 0.273426 0.357826 0.00940173 0.779001 -0.465361
0.541567 0.266084 0.323044 0.00224124 0.772825 -0.581465
0.537496 0.274639 0.418211 0.0247298 0.947223 -0.020016
0.539616 0.267196 0.368593 0.0137539 0.897024 -0.249705
0.538634 0.274138 0.391623 0.0179721 0.872693 -0.216821
0.541861 0.264111 0.316151 0.000952145 0.778668 -0.593536
0.539372 0.274063 0.374405 0.0209912 0.814043 -0.344419
0.539841 0.275396 0.363465 0.150245 0.638261 -0.367306
0.540186 0.276073 0.355437 0.219983 0.536992 -0.394963
0.543983 0.176049 0.259704 0.237679 -0.55409 0.12131
0.544055 0.256509 0.228941 0.025845 0.544743 0.643648
0.544047 0.24823 0.233088 0.0434627 0.471046 0.582952
0.54404 0.24085 0.236022 0.0624209 0.37471 0.534251
0.544036 0.235178 0.236478 0.0846368 0.228634 0.509549
0.543999 0.195193 0.254087 0.180034 -0.2244 0.233538
0.544053 0.255372 0.231843 0.0183423 0.628098 0.618807
0.54401 0.207596 0.248892 0.149308 -0.0731889 0.317269
0.544023 0.220959 0.242808 0.11827 0.0702624 0.410919
0.544019 0.217969 0.245163 0.120987 0.0779986 0.382927
0.54403 0.231628 0.243397 0.0737015 0.377661 0.432997
0.544024 0.228666 0.249288 0.0736265 0.434956 0.328261
0.544026 0.229203 0.247017 0.07572 0.399182 0.368502
0.54403 0.233352 0.244351 0.0661725 0.436758 0.416544
0.544035 0.243853 0.247649 0.0246466 0.743743 0.360772
0.544041 0.244143 0.238867 0.038837 0.565037 0.515929
0.544012 0.213803 0.253326 0.117351 0.184112 0.253476
0.544024 0.230098 0.25158 0.0647802 0.515673 0.288128
0.544006 0.207543 0.255641 0.134709 0.0913979 0.211132
0.544018 0.224036 0.253854 0.0815308 0.426589 0.246548
0.544018 0.220515 0.250153 0.0999364 0.268935 0.311081
0.544008 0.208497 0.25303 0.135965 0.057907 0.257459
0.544032 0.246863 0.255624 0.00518681 0.917237 0.253435
0.543999 0.205725 0.264816 0.13217 0.146509 0.0995313
0.544004 0.211737 0.264095 0.113199 0.263216 0.115762
0.544013 0.221502 0.259989 0.0843354 0.433572 0.171652
0.54402 0.230112 0.258023 0.0577843 0.594619 0.204282
0.54403 0.246198 0.259761 0.00458845 0.930892 0.210824
0.543982 0.179811 0.264039 0.216524 -0.381978 0.068637
0.460743 0.214406 0.381624 -0.245671 -0.0886474 -0.263931
0.458582 0.195715 0.329825 -0.259051 -0.303267 -0.168215
0.461107 0.206995 0.390425 -0.278115 -0.179368 -0.198798
0.458621 0.231849 0.330572 -0.141242 0.130714 -0.445349
0.457492 0.22571 0.30347 -0.136303 0.0621597 -0.42326
0.460685 0.188277 0.380385 -0.330215 -0.402339 -0.0641743
0.458308 0.256407 0.322901 -0.0536077 0.427241 -0.641282
0.458268 0.226733 0.322113 -0.150195 0.0708704 -0.41385
0.460424 0.220138 0.373933 -0.219759 -0.0183077 -0.315128
0.457542 0.190033 0.304864 -0.254596 -0.366752 -0.14765
0.45762 0.196556 0.3067 -0.234902 -0.288735 -0.196103
