-0.129467 -0.0249756 -0.441985 0.0782215 0.785614 -0.251857
-0.227897 -0.00425412 -0.388879 0.130867 0.705143 -0.392981
-0.186619 -0.0129439 -0.475855 0.168326 0.850088 -0.0280665
-0.102548 -0.0306426 -0.520681 0.12287 0.917903 0.0899475
-0.0326761 -0.045352 -0.521458 0.051528 0.911579 0.0156809
-0.192976 -0.0116057 -0.466943 0.166681 0.835468 -0.0630877
-0.196149 -0.0109377 -0.418284 0.125182 0.752195 -0.289458
-0.206016 -0.00886044 -0.348331 0.0709933 0.633063 -0.608972
-0.130054 -0.0248519 -0.422212 0.0606344 0.7517 -0.344625
-0.211575 -0.00769033 -0.413821 0.136983 0.746216 -0.293339
-0.23808 -0.00211042 -0.362342 0.116951 0.660656 -0.507004
-0.08282 -0.0347957 -0.5034 0.0866245 0.886043 -0.0137082
-0.200101 -0.0101057 -0.48554 0.191141 0.86821 0.0327337
-0.0800579 -0.0353772 -0.491695 0.0730059 0.865625 -0.0720957
-0.176405 -0.0150942 -0.463795 0.146696 0.828242 -0.0964447
-0.230393 -0.00372874 -0.440493 0.180931 0.794116 -0.146324
-0.156794 -0.0192227 -0.48821 0.148936 0.868049 -0.00296347
-0.0573359 -0.0401606 -0.496275 0.0537876 0.871005 -0.0758004
-0.0628477 -0.0390003 -0.522165 0.0832939 0.916102 0.0526782
-0.144665 -0.0217761 -0.50984 0.156329 0.903891 0.0857078
-0.270122 0.0285299 -0.30348 0.0691615 0.792961 -0.353675
-0.255358 0.0137655 -0.313829 0.1017 0.657819 -0.585468
-0.289795 0.0482055 -0.442134 0.438543 0.812384 -0.0932929
-0.289938 0.0483475 -0.38183 0.275227 0.877137 -0.0719053
-0.280497 0.0389055 -0.356151 0.208591 0.824752 -0.209861
0.128157 -0.0480719 -0.548904 0.015755 0.601574 0.618177
-0.000428296 -0.0198414 -0.56302 0.0473212 0.740594 0.156487
0.0140112 0.0335567 -0.589719 0.0524795 0.356411 0.300429
0.0932513 -0.0349096 -0.555486 0.0251699 0.603484 0.5018
0.01587 0.026612 -0.586247 0.0510175 0.396991 0.296461
0.0047716 -0.0146951 -0.565593 0.0470121 0.694003 0.185394
0.113293 -0.0134711 -0.566205 0.0242253 0.413465 0.615825
0.00266342 -0.0304548 -0.557713 0.0450337 0.801981 0.151414
0.0524822 -0.00949565 -0.568193 0.0377111 0.540295 0.38222
-0.0528526 0.0280508 -0.576096 0.013036 0.403292 0.0569988
-0.151416 0.021836 -0.552238 -0.0677517 0.391779 -0.285914
-0.049639 -0.00755605 -0.558969 0.0101608 0.636986 0.00987922
-0.158184 0.0437318 -0.561761 -0.0698648 0.245545 -0.273118
-0.017438 0.00951407 -0.574283 0.0388682 0.542755 0.146395
-0.00311934 0.0443664 -0.594724 0.0558277 0.32323 0.251483
-0.0224089 0.00583935 -0.571399 0.0342767 0.564075 0.123629
-0.0654936 -0.00190502 -0.558456 -0.00181126 0.591801 -0.0344529
-0.0480453 0.0342715 -0.580218 0.0178868 0.365298 0.0833581
-0.0156612 0.0278759 -0.583838 0.0431323 0.424056 0.182289
-0.111975 0.0331949 -0.566221 -0.0340588 0.338581 -0.13425
-0.0776195 0.0415272 -0.57762 -0.0049505 0.302419 -0.0046846
-0.253135 0.0424921 -0.534301 -0.0940301 0.309165 -0.442779
-0.248723 0.0245482 -0.518564 0.0421802 0.549322 -0.209124
0.0967456 -0.0507823 -0.295161 -0.0430052 0.765032 -0.236574
0.199397 -0.039897 -0.289719 -0.194602 0.603881 -0.0748497
0.203458 -0.037105 -0.288322 -0.191596 0.566957 -0.0453097
0.19624 -0.0401683 -0.289854 -0.189698 0.608016 -0.0792011
0.14798 -0.0491709 -0.294355 -0.133237 0.734038 -0.193308
0.102353 -0.0333326 -0.286436 0.0129681 0.538182 -0.0625597
0.164012 -0.0435012 -0.291521 -0.14178 0.657516 -0.129147
0.197737 -0.049388 -0.294464 -0.227661 0.72699 -0.168751
0.0488202 -0.0415167 -0.290528 0.0824675 0.654659 -0.171471
-0.15985 -0.0156003 -0.294268 0.0800186 0.623658 -0.661327
-0.080217 -0.0243629 -0.290267 0.095562 0.687458 -0.530196
-0.00742786 -0.0202386 -0.280543 0.0932581 0.714275 -0.474033
-0.072681 0.00370394 -0.27544 0.0577118 0.618481 -0.669479
-0.0559116 -0.00531017 -0.278182 0.0707402 0.650526 -0.604232
-0.0285104 0.0255969 -0.259844 0.0299281 0.584417 -0.737188
-0.0492249 0.0372799 -0.256183 0.0130886 0.543409 -0.820663
-0.106995 0.0162338 -0.272787 0.0391019 0.568264 -0.771938
-0.119469 0.0140355 -0.275199 0.0415263 0.56754 -0.773733
-0.247413 0.0474103 -0.254168 0.00758874 0.8465 -0.359732
-0.248086 0.0469291 -0.255322 0.00870408 0.8456 -0.358835
-0.257619 0.0450514 -0.266732 0.0188496 0.86093 -0.305393
-0.33981 0.0485053 -0.495047 -0.161899 0.565511 -0.401119
-0.327513 0.0485048 -0.464077 -0.0618217 0.646041 -0.318149
-0.299941 0.0485043 -0.41085 0.206476 0.809522 -0.137263
-0.339132 0.0485053 -0.495053 -0.151743 0.568146 -0.397089
-0.476189 0.0485052 -0.44665 -0.0162675 0.800184 -0.178971
-0.469136 0.0485043 -0.396234 -0.0237403 0.592432 -0.191673
-0.411758 0.048505 -0.456052 -0.0868329 0.634239 -0.286318
-0.438524 0.0485037 -0.373427 -0.0571321 0.41308 -0.243177
-0.391087 0.0485046 -0.438491 -0.109371 0.505167 -0.321137
-0.465321 0.0485039 -0.373554 -0.0278038 0.496975 -0.198457
-0.406315 0.048505 -0.457714 -0.0927989 0.623414 -0.295371
-0.451576 0.048504 -0.382335 -0.0428912 0.486541 -0.221233
-0.458243 0.0485035 -0.349836 -0.0354343 0.387535 -0.210707
-0.482646 0.0485046 -0.407379 -0.00900739 0.675564 -0.168921
-0.435824 0.0485048 -0.433869 -0.0603845 0.627413 -0.246568
-0.412557 0.0485041 -0.404788 -0.085707 0.447809 -0.285931
-0.441789 0.048505 -0.446277 -0.0539171 0.691707 -0.236385
-0.434889 0.0485046 -0.422517 -0.0613521 0.582667 -0.248338
-0.481067 0.0485036 -0.351952 -0.0104646 0.466391 -0.172581
-0.438513 0.0485043 -0.404125 -0.0572949 0.526175 -0.242629
-0.490545 0.0485029 -0.307962 0.000125942 0.333788 -0.157575
-0.616833 0.0485024 -0.239259 -0.152698 0.776133 -0.0620026
-0.637469 0.0485034 -0.331216 -0.428227 0.148642 -0.21338
-0.760381 0.0485048 -0.40926 -0.804969 0.136644 -0.270938
-0.657072 0.0485037 -0.354156 -0.51656 0.0634944 -0.241418
-0.582177 0.0485027 -0.284076 -0.226358 0.249478 -0.165863
-0.586243 0.0485026 -0.269521 -0.192688 0.385011 -0.13697
-0.610544 0.0485029 -0.293714 -0.290766 0.313128 -0.164099
-0.594707 0.0485022 -0.223685 -0.0807728 0.790391 -0.0489003
-0.702122 0.0485038 -0.339092 -0.537087 0.405479 -0.184035
-0.69177 0.048504 -0.369501 -0.604913 0.113151 -0.245648
-0.602144 0.0485021 -0.214779 -0.0668808 0.89776 -0.0278918
-0.665162 0.0485037 -0.343672 -0.499307 0.186612 -0.217133
-0.611755 0.0485023 -0.22801 -0.115529 0.840281 -0.0452028
-0.768315 0.0485049 -0.423864 -0.855043 0.0599805 -0.291847
-0.729837 0.0485044 -0.385442 -0.69944 0.174712 -0.248685
-0.81185 0.0485032 -0.322256 -0.475263 0.486993 -0.180713
-0.813253 0.0485024 -0.250305 -0.242841 0.731114 -0.104856
-0.792691 0.0485031 -0.253995 -0.342025 0.639347 -0.114242
-0.794193 0.0485044 -0.370629 -0.702703 0.258226 -0.236195
-0.811075 0.0485035 -0.345672 -0.552261 0.406312 -0.205486
-0.796009 0.0485036 -0.304878 -0.488039 0.483373 -0.166732
-0.836306 0.0485023 -0.313284 -0.342869 0.611345 -0.16474
-0.899761 0.0485019 -0.180358 -0.455269 0.356145 -0.455279
-0.852585 0.0485019 -0.142709 -0.141854 0.799387 -0.141857
-0.875106 0.0485019 -0.140111 -0.18619 0.736685 -0.186194
-0.858659 0.0485019 -0.1231 -0.0570361 0.919338 -0.0570374
-0.887673 0.0485019 -0.175525 -0.399597 0.434879 -0.399606
-0.89225 0.0485019 -0.107584 -0.0635866 0.910074 -0.063588
-0.822517 0.0485019 -0.160277 -0.154825 0.781042 -0.154828
-0.955452 0.0485019 -0.16165 -0.435873 0.420176 -0.383108
-0.986849 0.0485019 -0.0571713 -0.240293 0.821865 -0.0071538
-0.981817 0.0485019 -0.132984 -0.237028 0.705329 -0.178578
-0.993385 0.0485019 -0.131552 -0.143244 0.820611 -0.109809
-0.988344 0.0485019 -0.0309826 -0.243414 0.859718 0.0506703
-0.986717 0.0485019 -0.122287 -0.203219 0.763066 -0.130459
-0.980129 0.0485019 -0.0470189 -0.301206 0.764598 -0.0264277
0.735635 -0.0526679 -0.496715 0.777027 0.094704 -0.016236
0.734261 -0.174813 -0.496715 0.286829 0.124561 0.55851
0.747416 -0.252931 -0.463174 0.316174 0.197622 -0.22802
0.72798 -0.252931 -0.298793 0.0114851 0.00717866 -0.610741
0.729722 -0.241832 -0.245519 0.0237266 0.0440307 -0.956862
0.743758 -0.0519744 -0.464723 0.70918 0.268727 -0.172438
0.740868 -0.0519744 -0.459569 0.716054 0.198502 -0.146511
0.737801 -0.0519744 -0.463071 0.733259 0.128426 -0.103526
0.73795 -0.137334 -0.511132 0.564651 0.313566 -0.413385
0.718437 -0.209596 -0.530644 0.439333 0.131664 -0.678945
0.740343 -0.133144 -0.508739 0.572737 0.330298 -0.380247
0.743833 -0.0942474 -0.50525 0.635639 0.393848 -0.33587
0.751794 -0.177536 -0.497289 0.510966 0.333377 -0.214015
0.721903 -0.189521 -0.527178 0.472879 0.172622 -0.632639
0.643953 -0.006464 -0.561497 0.263344 2.9504e-07 -0.93023
0.579814 -0.113587 -0.577532 0.190966 4.55383e-07 -0.955918
0.661367 0.00314409 -0.557143 0.289778 2.19985e-07 -0.92242
0.686777 -0.00360627 -0.550791 0.335589 7.68401e-08 -0.910134
0.521614 -0.0780001 -0.592083 0.0790302 8.15818e-07 -0.984923
0.556876 -0.0354941 -0.583267 0.124531 7.0114e-07 -0.970098
0.636596 -0.0621187 -0.563336 0.270148 2.4324e-07 -0.931317
0.611258 -0.0943678 -0.569671 0.238049 3.22879e-07 -0.941897
0.513161 -0.230713 -0.594196 0.117773 6.12617e-07 -0.982365
0.611897 -0.108246 -0.569511 0.243976 2.97093e-07 -0.941
0.573774 -0.114977 -0.579042 0.18112 4.84561e-07 -0.958711
0.532113 0.00824624 -0.589458 0.0669424 9.00785e-07 -0.983665
0.501523 -0.219149 -0.597106 0.0938412 6.91888e-07 -0.988355
0.585659 -0.0842208 -0.576071 0.190733 4.72501e-07 -0.954418
0.631279 -0.0133173 -0.564665 0.244056 3.49892e-07 -0.93592
0.51966 -0.226152 -0.592572 0.1273 5.86182e-07 -0.979492
0.685693 0.00177573 -0.551062 0.33186 9.1193e-08 -0.910876
0.505583 -0.0273826 -0.596091 0.0339802 9.8116e-07 -0.994663
0.507617 -0.0741247 -0.595582 0.0537415 8.94921e-07 -0.991698
0.555557 -0.0539126 -0.583597 0.128692 6.78189e-07 -0.96993
0.587167 0.0180654 -0.575694 0.157678 6.30219e-07 -0.958093
0.506935 0.00885028 -0.595753 0.0236696 1.03277e-06 -0.995579
0.508508 -0.118031 -0.59536 0.0705611 8.19216e-07 -0.989394
0.612106 -0.0767267 -0.569459 0.233354 3.4702e-07 -0.942253
0.31921 -0.125435 -0.597193 0 0.192464 -0.714954
0.316989 -0.018724 -0.597193 0 0.499825 -0.259739
0.323155 -0.151423 -0.597193 0 0.104892 -0.844653
0.291794 0.0242877 -0.597193 0 0.714511 0.0582214
0.428173 0.0103394 -0.597193 0 0.165818 -0.754418
0.380722 -0.0502337 -0.597193 0 0.173366 -0.743238
0.364479 -0.0519238 -0.597193 0 0.229325 -0.660362
0.378151 -0.0617065 -0.597193 0 0.15082 -0.77663
0.376555 -0.0938032 -0.597193 0 0.0668354 -0.901015
0.351332 -0.0432692 -0.597193 0 0.302706 -0.551681
0.331136 -0.0931072 -0.597193 0 0.2385 -0.646772
0.421904 0.032362 -0.597193 0 0.250959 -0.628321
0.411204 0.00422563 -0.597193 0 0.212091 -0.685885
0.452689 0.0476945 -0.597193 0 0.178895 -0.73505
0.31779 -0.103224 -0.597193 0 0.260019 -0.614903
0.303507 0.0427836 -0.597193 0 0.722577 0.0701675
0.309463 -0.038568 -0.597193 0 0.472331 -0.300458
0.481614 0.0294673 -0.597193 0 0.0197297 -0.970781
0.337768 -0.00339616 -0.597193 0 0.465137 -0.311114
0.337209 0.0344518 -0.597193 0 0.573295 -0.150925
0.307151 -0.149487 -0.597193 0 0.170118 -0.748049
0.316278 -0.165405 -0.597193 0 0.0914061 -0.864625
0.353622 0.0437785 -0.597193 0 0.538102 -0.203049
0.362644 -0.011918 -0.597193 0 0.348301 -0.484153
0.363806 0.0066551 -0.597193 0 0.396009 -0.413494
0.350655 0.0314387 -0.597193 0 0.514606 -0.237848
0.314919 -0.00219961 -0.597193 0 0.553867 -0.1797
0.30207 0.0393312 -0.597193 0 0.718273 0.0637934
0.341393 -0.0379184 -0.597193 0 0.35484 -0.474468
0.282101 -0.0649773 -0.597193 0 0.500565 -0.258643
0.304318 -0.131315 -0.597193 0 0.231633 -0.656942
0.415829 -0.0315003 -0.597193 0 0.0946841 -0.85977
-0.799622 0.0438575 -0.425066 -0.948685 0 -0.316221
-0.796979 0.0409463 -0.432996 -0.948685 0 -0.316221
-0.975291 0.0237798 -0.163194 -0.707103 0 -0.70711
-0.921176 0.0244029 -0.217309 -0.707092 0 -0.707122
-0.141046 0.260606 -0.0718296 0.144039 -0.703213 0.57988
-0.0749494 0.268104 -0.0668191 0.179173 -0.636083 0.629126
-0.237311 0.257801 -0.0737042 0.125701 -0.744669 0.58403
-0.233734 0.248595 -0.0798568 0.0887099 -0.807744 0.496814
0.0939493 0.263418 -0.0699504 0.172475 -0.63002 0.53201
-0.0724218 0.256158 -0.0748021 0.131023 -0.718406 0.51663
0.0784838 0.287017 -0.0403102 0.235428 -0.678435 0.369554
0.017089 0.287659 -0.0393498 0.19654 -0.724025 0.362147
-0.205305 0.288425 -0.0382039 0.0667155 -0.869281 0.364071
-0.159581 0.289879 -0.0360278 0.0819933 -0.859977 0.333949
0.0428888 0.291414 -0.0337301 0.184375 -0.756216 0.291019
0.0500246 0.286886 -0.0405064 0.220437 -0.6941 0.374025
-0.15006 0.290539 -0.03504 0.0826444 -0.862597 0.321088
-0.222625 0.286941 -0.0404242 0.0675348 -0.860904 0.392686
-0.00578311 0.281153 -0.0490852 0.22982 -0.654964 0.483791
-0.148418 0.290754 -0.0347184 0.0820405 -0.864339 0.317005
-0.129547 0.296756 -0.00911778 0.0837159 -0.889871 0.065115
-0.211536 0.299017 0.00225545 0.02128 -0.957884 -0.0831004
-0.225365 0.293854 -0.0237097 0.0264888 -0.937304 0.202484
-0.215924 0.296295 -0.0114365 0.0260105 -0.945086 0.0682567
-0.0119087 0.298526 -0.000216728 0.159063 -0.821274 -0.0031345
-0.222594 0.298803 0.0011758 0.014334 -0.964053 -0.0739791
0.00720883 0.297316 -0.00629817 0.175558 -0.801473 0.0696254
-0.158398 0.298227 -0.00171857 0.0598279 -0.917709 -0.0248794
-0.0108837 0.298713 0.00072388 0.159233 -0.821669 -0.0133424
-0.0226187 0.297813 -0.00380165 0.15377 -0.82433 0.0339838
-0.310673 0.295365 -0.0161131 0.0451857 -0.834245 0.0973055
-0.280952 0.29636 -0.0111079 0.0285589 -0.89099 0.0485865
-0.290965 0.294302 -0.0214557 0.0390496 -0.861917 0.161478
-0.285588 0.294658 -0.0196656 0.0355423 -0.8732 0.142811
-0.270002 0.294839 -0.0187584 0.0277922 -0.900984 0.136394
-0.379204 0.28393 -0.0190382 0.136877 -0.617172 0.106099
-0.435367 0.267836 -0.00975532 0.179463 -0.517812 -0.0914614
-0.41675 0.273621 -0.0126368 0.164132 -0.552468 -0.0268571
-0.334469 0.28018 -0.0336365 0.14771 -0.632939 0.295968
-0.456247 0.276353 1.79002e-07 0.156132 -0.536331 -0.193358
-0.292571 0.270076 -0.0501746 0.175657 -0.6225 0.486729
-0.439691 0.258328 -0.0126363 0.205078 -0.478533 -0.090446
-0.414612 0.267564 -0.0158903 0.180526 -0.530741 -0.00624785
-0.357965 0.269035 -0.0316713 0.177442 -0.574499 0.221977
-0.40805 0.266064 -0.0184443 0.184679 -0.529423 0.0234642
-0.343669 0.26273 -0.0385569 0.194698 -0.560005 0.292673
-0.402081 0.29095 -0.0093542 0.117556 -0.628623 -0.00101216
-0.344179 0.268309 -0.0359833 0.179621 -0.581 0.279646
-0.374012 0.274066 -0.0248319 0.1636 -0.58294 0.146634
-0.502044 0.220609 -0.0124485 -0.0748446 0.122341 -0.141301
-0.471297 0.245926 -0.010166 0.181175 -0.442012 -0.246439
-0.497719 0.215973 -0.01601 -0.123936 0.199834 -0.0969501
-0.463426 0.218719 -0.0255381 -0.103049 0.0582534 -0.0303019
-0.504859 0.235625 -0.00444698 0.0816896 -0.157744 -0.256739
-0.529978 0.108285 -0.186201 -0.288072 0.689944 -0.533637
-0.551194 0.0924085 -0.186176 -0.207102 0.792931 -0.371587
-0.498834 0.155463 -0.170322 -0.215905 0.0653999 -0.0970798
-0.49713 0.159167 -0.168705 -0.198589 0.00195224 -0.0293418
0.694927 0.0414511 -0.217677 0.212221 0.614473 -0.550058
0.665258 0.11679 -0.182343 0.113921 0.584327 -0.681366
0.692632 0.0565831 -0.207745 0.209415 0.55697 -0.623811
0.736777 -0.0231086 -0.235248 0.372389 0.409668 -0.649938
0.220387 0.0785511 -0.22504 0.0122034 0.324605 -0.499185
0.486499 0.0809146 -0.223429 0.0170078 0.399497 -0.614617
0.303896 0.0819315 -0.222736 0.0135301 0.350235 -0.539045
-0.0979749 0.0772721 -0.225911 0.0063493 0.236257 -0.363222
0.486862 0.170112 -0.162638 0.0108965 0.471512 -0.737681
-0.218517 0.0533799 -0.242194 0.00573833 0.183934 -0.279487
0.433881 0.0523613 -0.242889 0.0179843 0.362044 -0.553091
-0.148631 0.0567721 -0.239883 0.00680997 0.205836 -0.313621
0.205183 0.0987119 -0.211299 0.0105367 0.33669 -0.520557
0.359657 0.082506 -0.222344 0.0145313 0.365991 -0.563342
0.0308221 0.117409 -0.198557 0.00600011 0.303943 -0.472822
0.378495 0.147985 -0.177719 0.0103917 0.42395 -0.66151
0.211045 0.123474 -0.194424 0.00894773 0.358262 -0.557149
0.378333 0.0697368 -0.231047 0.0157558 0.360819 -0.553619
0.28727 0.11195 -0.202277 0.0111608 0.369877 -0.573401
-0.01664 0.0854572 -0.220333 0.00730588 0.265164 -0.408786
0.289182 0.101035 -0.209716 0.0119451 0.361602 -0.559167
0.13691 0.0756552 -0.227013 0.010844 0.299375 -0.460006
-0.145606 0.066529 -0.233233 0.0061972 0.214532 -0.328341
0.355811 0.0571726 -0.23961 0.0161972 0.344512 -0.526812
0.284139 0.0994668 -0.210785 0.0119586 0.358954 -0.55488
0.0218314 0.0974193 -0.21218 0.00720341 0.28536 -0.441487
0.170014 0.135333 -0.186341 0.00736854 0.35657 -0.556194
0.0488447 0.082149 -0.222587 0.00875497 0.280457 -0.431832
-0.29424 0.064244 -0.23479 0.00357989 0.171924 -0.262537
-0.137376 0.0587913 -0.238506 0.00688153 0.210551 -0.321147
-0.0336546 0.0585479 -0.238672 0.00883405 0.238802 -0.364534
0.302668 0.0968536 -0.212566 0.0124836 0.361929 -0.559089
0.149702 0.049875 -0.244583 0.012851 0.282099 -0.429874
0.509404 0.130907 -0.189357 0.0140063 0.446086 -0.69316
0.534414 0.136401 -0.185613 0.0140963 0.457375 -0.711273
0.525551 0.116145 -0.199418 0.0153202 0.438613 -0.679625
0.423166 0.132952 -0.187964 0.0122565 0.424082 -0.659626
0.0715687 0.0841281 -0.221239 0.00904334 0.288286 -0.444138
-0.303297 0.0586092 -0.238631 0.00379734 0.164897 -0.250955
0.0665277 0.121173 -0.195991 0.00640831 0.316771 -0.49306
0.589513 0.155148 -0.172837 0.0138388 0.487601 -0.760331
-0.00724932 0.0766861 -0.226311 0.00808276 0.260668 -0.400659
0.522652 0.0796215 -0.22431 0.0177713 0.40837 -0.628075
0.128713 0.0653748 -0.23402 0.0113961 0.288839 -0.442385
0.452794 0.123764 -0.194226 0.0134397 0.4248 -0.659454
0.0587269 0.0992247 -0.21095 0.00776818 0.296935 -0.459527
0.0219591 0.0503267 -0.244275 0.0104359 0.247427 -0.376649
0.326472 0.118248 -0.197985 0.0114604 0.385707 -0.598605
-0.299768 0.056133 -0.240318 0.00403306 0.163869 -0.249031
0.502318 0.0606038 -0.237271 0.0186962 0.38746 -0.593298
0.57414 0.16638 -0.165182 0.0127815 0.49244 -0.769328
-0.151585 0.0598928 -0.237756 0.0065408 0.207542 -0.316676
0.371676 0.159301 -0.170006 0.00948829 0.431204 -0.674228
0.129034 0.077228 -0.225941 0.0105891 0.298483 -0.458854
0.131643 0.102675 -0.208599 0.00889242 0.319715 -0.495017
0.352324 0.0825227 -0.222333 0.0143934 0.363994 -0.560274
0.474399 0.170732 -0.162216 0.0106214 0.468594 -0.733281
0.168697 0.084654 -0.22088 0.01082 0.315349 -0.485805
0.0909258 0.0877867 -0.218745 0.00915366 0.296544 -0.457339
0.490109 0.17525 -0.159136 0.0106047 0.476545 -0.74613
-0.416544 0.0503788 -0.24424 0.00224828 0.127201 -0.191877
0.0314749 0.0725931 -0.2291 0.00908623 0.267989 -0.411342
0.583503 0.163961 -0.16683 0.0131221 0.493059 -0.769942
0.562274 0.134739 -0.186746 0.0147303 0.463675 -0.720726
-0.382672 0.0504869 -0.244166 0.00287304 0.136578 -0.206304
-0.284379 0.0616902 -0.236531 0.00393911 0.17257 -0.263176
0.227485 0.0815573 -0.222991 0.0121296 0.328976 -0.50632
0.00921538 0.059499 -0.238024 0.00956892 0.251327 -0.383916
0.021545 0.0713624 -0.229939 0.00898532 0.264273 -0.405461
0.221747 0.100887 -0.209817 0.0106967 0.342987 -0.530536
0.336588 0.12654 -0.192334 0.0110805 0.395167 -0.614295
0.365668 0.0820208 -0.222675 0.0146768 0.367249 -0.565207
0.336194 0.0908551 -0.216654 0.0135208 0.366288 -0.564956
0.50677 0.094543 -0.214141 0.0164514 0.416045 -0.641941
0.452356 0.132829 -0.188048 0.0128098 0.431989 -0.671761
0.381037 0.0681517 -0.232127 0.015915 0.360282 -0.552575
0.114401 0.0980222 -0.211769 0.00888974 0.311235 -0.481339
0.330363 0.098774 -0.211257 0.0128688 0.371073 -0.57341
-0.108888 0.0833987 -0.221736 0.00572541 0.238204 -0.367064
0.346327 0.0908388 -0.216665 0.013711 0.369054 -0.569205
0.132795 0.107182 -0.205527 0.00860479 0.323665 -0.501714
-0.131497 0.0833469 -0.221771 0.00530699 0.231961 -0.357463
0.524189 0.181567 -0.154831 0.0108074 0.490986 -0.7692
0.0597597 0.0511277 -0.243729 0.0110864 0.25844 -0.393687
0.134796 0.0766683 -0.226323 0.010735 0.299612 -0.460511
0.25581 0.0542389 -0.241609 0.0145321 0.314719 -0.480616
0.491195 0.172706 -0.16087 0.0107995 0.474792 -0.743082
0.260687 0.0575858 -0.239328 0.0143935 0.318755 -0.487284
0.443008 0.154926 -0.172988 0.0111197 0.44724 -0.698269
0.303128 0.137724 -0.184712 0.0096889 0.395007 -0.615601
0.066359 0.105208 -0.206872 0.00750021 0.303853 -0.470989
0.197592 0.120264 -0.196611 0.00891681 0.351984 -0.547055
-0.346179 0.0499604 -0.244525 0.00359023 0.146163 -0.220961
0.246197 0.101146 -0.20964 0.0111352 0.349902 -0.5412
0.363734 0.151868 -0.175072 0.00984991 0.423032 -0.660638
-0.543647 0.156708 -0.122829 -0.257577 0.470589 -0.219606
-0.519151 0.158853 -0.156714 -0.184357 0.11152 0.0398487
-0.508275 0.198194 -0.120576 -0.0502074 -0.383593 0.577641
-0.530233 0.19659 -0.0897763 -0.114994 -0.0645264 0.348588
-0.54085 0.159243 -0.123645 -0.243152 0.409561 -0.164768
-0.562923 0.194155 -0.0439858 -0.211575 0.410923 0.007044
-0.537105 0.174321 -0.109158 -0.192905 0.225685 0.0372731
-0.542329 0.131963 -0.157798 -0.319463 0.668674 -0.479329
-0.511815 0.176859 -0.143711 -0.116457 -0.147846 0.308691
-0.534207 0.184971 -0.0993059 -0.156716 0.0922946 0.182414
-0.768324 0.0485019 -0.145195 6.97969e-07 1 2.09393e-06
-0.570817 0.113882 -0.162049 -0.305986 0.758211 -0.476087
-0.567893 0.117504 -0.161096 -0.321949 0.745072 -0.503117
-0.797988 0.0770395 -0.0730254 -0.253227 0.863549 -0.128027
-0.939735 0.0488995 -0.020912 -0.195292 0.948562 0.126059
-0.700592 0.0564805 -0.135429 -0.0993063 0.954486 -0.0167819
-0.594739 0.0696307 -0.179589 -0.104383 0.92044 -0.150185
-0.779857 0.0800676 -0.080072 -0.257864 0.854813 -0.156434
-0.629046 0.0684603 -0.163216 -0.117751 0.919901 -0.129099
-0.590965 0.0891553 -0.16846 -0.1971 0.847889 -0.29147
-0.72753 0.0855674 -0.102569 -0.255513 0.84173 -0.21521
-0.62849 0.0799533 -0.155832 -0.173253 0.876955 -0.211649
-0.600408 0.0769907 -0.171848 -0.143271 0.892074 -0.200818
-0.816763 0.0547544 -0.0784949 -0.155436 0.944283 0.0385887
-0.740491 0.0730881 -0.104408 -0.20211 0.886589 -0.121001
-0.599226 0.0919458 -0.162469 -0.215238 0.836257 -0.308404
-0.786748 0.0576535 -0.0915693 -0.152846 0.937735 0.00670679
-0.722973 0.0498816 -0.128639 -0.0796897 0.975979 0.0387818
-0.589823 0.107006 -0.15713 -0.283148 0.781227 -0.419785
-0.574654 0.0791913 -0.183258 -0.139656 0.88753 -0.226119
-0.593776 0.10003 -0.159805 -0.251468 0.806775 -0.368342
-0.610231 0.0580531 -0.179561 -0.0567645 0.961561 -0.0614997
-0.573163 0.108507 -0.164459 -0.281188 0.777996 -0.43671
-0.318126 0.228147 -0.0774188 -0.0111009 -0.599282 0.330794
-0.514133 0.200813 -0.0924167 -0.0904971 -0.177152 0.417558
-0.349669 0.221809 -0.101759 0.00883451 -0.69461 0.484813
-0.503139 0.201238 -0.104108 -0.0673455 -0.294148 0.492747
-0.584524 0.199938 0.00328171 -0.269821 0.727106 -0.196966
-0.470061 0.204043 -0.122016 -0.0234533 -0.517572 0.60866
-0.431573 0.214182 -0.065125 -0.0883469 -0.198785 0.247037
-0.433891 0.215451 -0.0473 -0.116144 -0.0597489 0.133071
-0.372713 0.221219 -0.0738604 -0.0447529 -0.424124 0.305548
-0.541169 0.204411 -0.0111824 -0.22573 0.501336 -0.102577
-0.440993 0.20981 -0.100424 -0.0405754 -0.435958 0.472075
-0.334804 0.22613 -0.0752104 -0.0230553 -0.537418 0.315919
-0.325195 0.224719 -0.105571 0.0272293 -0.789646 0.51029
-0.48373 0.209143 -0.0438504 -0.147168 0.101667 0.108739
-0.439226 0.215414 -0.039719 -0.130224 0.0112265 0.0844016
-0.378566 0.21976 -0.081582 -0.0362717 -0.465679 0.3546
-0.349591 0.222422 -0.0949438 -0.00129211 -0.644081 0.441286
-0.390737 0.216051 -0.105248 -0.00728257 -0.608751 0.50521
-0.421003 0.214433 -0.078145 -0.063434 -0.324515 0.33069
-0.360352 0.224134 -0.0594541 -0.0598274 -0.350523 0.214097
-0.463751 0.206161 -0.107528 -0.0417927 -0.426877 0.516405
-0.47387 0.205651 -0.0981216 -0.0610806 -0.329279 0.455855
-0.567958 0.201285 -0.00634229 -0.246861 0.610333 -0.134729
-0.490291 0.205742 -0.0724553 -0.107899 -0.0934528 0.291153
-0.526653 0.205228 -0.0237212 -0.199486 0.368443 -0.0218159
-0.483553 0.210646 -0.0271309 -0.172021 0.225677 0.00195066
-0.546071 0.204069 -0.00769885 -0.233473 0.540625 -0.125055
-1.12889 0.116545 0.00567683 -0.0351375 0.467434 -0.197573
-1.01936 0.00280513 0.00567683 -0.135041 0.625334 -0.162119
-0.998133 -0.0104753 0.00567683 -0.16218 0.689662 -0.118758
-1.04426 -0.0246247 0.00567683 -0.0649824 0.384184 -0.392213
-1.01333 -0.121116 0.00567683 -0.0359986 0.180825 -0.650421
-1.06296 -0.0392478 0.00567683 -0.0176726 0.226084 -0.540126
-1.17667 0.10918 0.00567683 0.0590682 0.179083 -0.450456
-1.05743 0.0542487 0.00567683 -0.110894 0.616311 -0.12483
-1.17687 0.140757 0.00567683 0.031384 0.299606 -0.319828
-1.116 0.119652 0.00567683 -0.0615445 0.54953 -0.124692
-1.10399 0.0400143 0.00567683 -0.0128278 0.308153 -0.400649
-1.01174 0.0466894 0.00567683 -0.188001 0.835792 0.0561379
-1.0523 0.0671838 0.00567683 -0.131802 0.694057 -0.0470686
-1.05492 0.05168 0.00567683 -0.11321 0.620055 -0.123877
-1.00015 -0.14224 0.00567683 -0.0413995 0.171141 -0.677177
-1.2469 0.199881 0.00567683 0.107339 0.146279 -0.39915
-1.07841 0.0461409 0.00567683 -0.0651913 0.470904 -0.256194
-1.03454 0.00419405 0.00567683 -0.108413 0.548053 -0.226952
-1.22493 0.156294 0.00567683 0.105746 0.0979736 -0.478562
-1.05699 0.0783758 0.00567683 -0.133133 0.711621 -0.0222666
-1.0937 0.0912965 0.00567683 -0.0772662 0.561656 -0.139132
-1.02856 -0.0250928 0.00567683 -0.0933601 0.467775 -0.321181
-1.11568 0.0361194 0.00567683 0.0120856 0.229528 -0.471254
-1.10247 -0.00965087 0.00567683 0.0285074 0.125136 -0.60051
-1.13077 0.107795 0.00567683 -0.0239101 0.423489 -0.242785
-1.01716 0.0591607 0.00567683 -0.189149 0.854371 0.0829265
-1.11108 0.0965398 0.00567683 -0.0500333 0.48727 -0.19812
-1.04919 0.0593328 0.00567683 -0.130536 0.680751 -0.0653082
-1.13714 0.0964489 0.00567683 -0.00214277 0.345128 -0.319681
-1.00901 0.00334292 0.00567683 -0.154497 0.683691 -0.111774
-1.12157 0.098502 0.00567683 -0.0325284 0.437742 -0.238732
-1.0442 0.0556629 0.00567683 -0.136418 0.693728 -0.0574278
-1.01226 -0.137149 0.00567683 -0.0237158 0.12489 -0.712251
-1.18662 0.109473 0.00567683 0.0770597 0.126081 -0.495498
-1.03893 -0.00132901 0.00567683 -0.0954643 0.502929 -0.270349
-1.01717 -0.179586 0.00559777 -0.0320482 -0.0570213 -0.856314
-1.42995 0.222326 -0.0115798 -0.062062 -0.102498 -0.753881
-1.46955 0.260881 -0.00889317 -0.209611 -0.246246 -0.57396
-1.41859 0.211264 0.00392265 -0.562877 -0.584562 -0.166899
-1.17997 -0.0210754 0.00324565 -0.191496 -0.217176 -0.642362
-1.23017 0.0278048 0.0040954 -0.293236 -0.317213 -0.514576
-1.43357 0.225852 5.49478e-05 -0.455685 -0.481887 -0.290492
-1.32721 0.122286 -0.0054512 -0.116436 -0.150764 -0.706664
1.49507 -0.167661 -0.00186919 0.517161 0.812717 -0.216852
1.2334 -0.000221026 0.00458618 0.49337 0.773133 -0.339661
1.61442 -0.24388 -0.00377769 0.528342 0.831193 -0.157206
1.39983 -0.109108 -0.0108961 0.501176 0.789289 -0.320283
1.17243 0.0367915 -0.00435628 0.48209 0.756799 -0.417172
1.08819 0.0911952 -0.000548838 0.476265 0.74628 -0.444112
1.31733 -0.0567461 -0.0107306 0.492266 0.775083 -0.369699
1.60619 -0.241915 -0.0184105 0.517075 0.817042 -0.24257
1.5123 -0.183511 -0.0213807 0.502102 0.795173 -0.321891
1.59742 -0.240836 -0.031146 0.498251 0.794352 -0.338828
1.04907 0.115396 -0.00208286 0.469466 0.736513 -0.479469
1.48196 -0.169424 -0.0325476 0.475242 0.762281 -0.430548
1.51332 -0.190527 -0.0356187 0.473295 0.761375 -0.434688
1.48383 -0.17255 -0.0362216 0.465822 0.75132 -0.461506
1.23497 -0.00744992 -0.0162885 0.469443 0.74464 -0.467697
1.42841 -0.136331 -0.0328088 0.463893 0.746626 -0.471914
1.11691 0.0674072 -0.0125154 0.451792 0.718647 -0.525573
1.45786 -0.158984 -0.039663 0.444492 0.724979 -0.518906
1.19406 0.0177558 -0.0164778 0.45998 0.731728 -0.50017
1.31395 -0.0651761 -0.0306175 0.436685 0.709418 -0.548158
1.48543 -0.180562 -0.0463779 0.423508 0.701349 -0.567889
1.45651 -0.15556 -0.0360592 0.460299 0.743632 -0.480619
1.09769 0.0782274 -0.0131143 0.432921 0.69493 -0.560473
1.36688 -0.104894 -0.0398075 0.38947 0.654548 -0.628986
1.4281 -0.144071 -0.0433618 0.406618 0.678225 -0.598858
1.55511 -0.22912 -0.0545756 0.400952 0.677207 -0.606098
1.56866 -0.238447 -0.0560316 0.397557 0.673705 -0.61159
1.34195 -0.0920638 -0.0408374 0.366854 0.626008 -0.666674
1.45754 -0.169881 -0.0519342 0.344836 0.604511 -0.702451
1.30268 -0.0748209 -0.0433418 0.354957 0.610222 -0.682844
1.46167 -0.185185 -0.0608837 0.317632 0.572266 -0.742344
1.15479 0.0335078 -0.0231562 0.401623 0.659764 -0.610035
1.55876 -0.245097 -0.0664846 0.310626 0.567898 -0.755602
1.35897 -0.102819 -0.0419904 0.365098 0.624614 -0.66977
1.05958 0.0997065 -0.012579 0.424198 0.68276 -0.574078
1.49044 -0.219191 -0.0732968 0.359485 0.614239 -0.674895
1.4445 -0.188423 -0.0688965 0.390417 0.6466 -0.62619
1.50949 -0.228909 -0.0731767 0.32313 0.57626 -0.732226
1.47923 -0.206532 -0.0689276 0.327157 0.580511 -0.725947
1.40143 -0.148445 -0.057648 0.33322 0.586961 -0.716574
1.18001 -0.00231233 -0.0429348 0.417366 0.670705 -0.591722
1.42514 -0.196361 -0.0818355 0.358258 0.594814 -0.692653
1.45767 -0.216216 -0.0831929 0.354674 0.59356 -0.695552
1.27329 -0.0817911 -0.0626115 0.386027 0.626444 -0.650756
1.34238 -0.141809 -0.0770253 0.368985 0.601171 -0.682824
1.20589 -0.0398338 -0.0613041 0.393194 0.6271 -0.648935
1.41782 -0.204152 -0.0891151 0.352334 0.579634 -0.709295
1.39589 -0.185511 -0.0853049 0.357459 0.586521 -0.700927
1.22464 -0.0568903 -0.0651985 0.3882 0.619862 -0.657538
0.983646 0.125207 -0.0362802 0.432062 0.668101 -0.595061
1.36069 -0.15776 -0.0804265 0.364495 0.594954 -0.690312
1.13244 0.0111549 -0.0550576 0.404094 0.636362 -0.635736
1.33087 -0.133359 -0.0757854 0.370944 0.603175 -0.680162
1.1224 0.0106195 -0.0608416 0.336626 0.554326 -0.736256
1.03348 0.0799486 -0.0496096 0.337495 0.556882 -0.733832
1.15761 -0.0211891 -0.0693714 0.332702 0.543248 -0.747739
0.965026 0.129466 -0.0439258 0.335593 0.551444 -0.739271
0.977978 0.116145 -0.0492166 0.332235 0.542154 -0.749369
1.2836 -0.134903 -0.0939486 0.357001 0.56241 -0.72391
1.32281 -0.165523 -0.0983867 0.349664 0.554681 -0.733049
1.40689 -0.234369 -0.109544 0.332099 0.534378 -0.756342
1.16398 -0.0391672 -0.0792138 0.380719 0.588705 -0.693336
1.32317 -0.167485 -0.0992924 0.348631 0.552644 -0.73508
1.26516 -0.124175 -0.0937503 0.358342 0.561751 -0.723863
1.11906 -0.0161228 -0.0822251 0.380744 0.579651 -0.702658
1.22854 -0.0991431 -0.0926918 0.362264 0.562367 -0.723251
1.12861 -0.034409 -0.0903152 0.371008 0.561543 -0.722313
1.09149 -0.00225977 -0.085058 0.379545 0.57162 -0.711629
1.29871 -0.167651 -0.107656 0.340546 0.531779 -0.755907
1.16667 -0.0677598 -0.0958906 0.362018 0.55076 -0.73369
1.23677 -0.121104 -0.102288 0.350425 0.540315 -0.745829
1.07059 0.0107399 -0.0845434 0.381215 0.571347 -0.71118
1.19269 -0.0893473 -0.0991227 0.356615 0.544798 -0.740148
1.3432 -0.22696 -0.124006 0.31704 0.494893 -0.79191
1.25497 -0.152387 -0.112992 0.335733 0.515452 -0.77043
1.2793 -0.183912 -0.121543 0.323039 0.495909 -0.789351
1.19322 -0.111541 -0.111519 0.340489 0.51426 -0.770613
1.27223 -0.174507 -0.119176 0.326666 0.501347 -0.784368
1.26655 -0.171439 -0.119277 0.326734 0.500617 -0.784832
0.9262 0.112786 -0.0805018 0.394511 0.570984 -0.712662
1.03591 0.0120216 -0.0989445 0.364529 0.533098 -0.751496
1.27873 -0.201342 -0.129739 0.311035 0.474612 -0.808288
1.33495 -0.239665 -0.132096 0.305881 0.473585 -0.810708
1.25838 -0.183021 -0.12697 0.315804 0.480008 -0.803104
1.28699 -0.200614 -0.127347 0.314427 0.481641 -0.802488
1.05409 -0.00516143 -0.101773 0.359732 0.527347 -0.756924
1.22844 -0.159318 -0.124296 0.320699 0.484275 -0.798626
1.24638 -0.185653 -0.131502 0.309024 0.466723 -0.814474
1.07555 -0.0396959 -0.112619 0.342561 0.500438 -0.782106
0.97639 0.0464955 -0.101049 0.362999 0.521642 -0.761968
0.91477 0.100376 -0.0937255 0.375912 0.535177 -0.749159
1.23105 -0.183883 -0.134909 0.303698 0.455792 -0.82352
1.19405 -0.165878 -0.136963 0.300462 0.445907 -0.831109
1.2083 -0.174849 -0.137149 0.300066 0.446972 -0.830588
1.20663 -0.190497 -0.143909 0.288114 0.427805 -0.845827
1.19832 -0.197859 -0.148779 0.278868 0.412709 -0.857289
1.22914 -0.224126 -0.151555 0.274179 0.408821 -0.860687
1.14202 -0.166214 -0.149962 0.274963 0.40131 -0.864947
1.20253 -0.217812 -0.155179 0.266442 0.39464 -0.870636
1.21496 -0.235217 -0.158609 0.260101 0.386539 -0.876538
1.21024 -0.226275 -0.156498 0.264082 0.391922 -0.872675
0.96066 -0.00468099 -0.133167 0.301408 0.42271 -0.848405
0.840563 0.105169 -0.120765 0.321652 0.440915 -0.834255
1.02219 -0.0702632 -0.142624 0.28469 0.40437 -0.861752
1.17842 -0.218003 -0.160371 0.255055 0.376 -0.883331
0.871567 0.07482 -0.124631 0.315067 0.434287 -0.839213
0.903314 0.0306268 -0.134243 0.294863 0.40866 -0.858578
1.04149 -0.104366 -0.150719 0.267743 0.382351 -0.87763
1.10069 -0.178957 -0.163385 0.243305 0.353821 -0.897255
1.11789 -0.193487 -0.164656 0.241744 0.352987 -0.897984
0.752166 0.156082 -0.126708 0.295467 0.39862 -0.866884
0.868433 0.0403969 -0.14022 0.275077 0.379747 -0.879542
1.06539 -0.151727 -0.161958 0.243057 0.351081 -0.898983
1.04218 -0.128477 -0.159215 0.247228 0.354981 -0.896376
0.901859 0.0063946 -0.144326 0.268729 0.373683 -0.883566
0.995841 -0.0841983 -0.154376 0.254158 0.360933 -0.892281
0.853269 0.0555757 -0.13843 0.277796 0.382286 -0.877843
1.14448 -0.225967 -0.169819 0.232101 0.342066 -0.90528
0.817864 0.078918 -0.139103 0.269936 0.370182 -0.886297
1.03091 -0.159518 -0.170889 0.216796 0.316115 -0.919971
1.09033 -0.211082 -0.17527 0.213543 0.315222 -0.920921
1.00468 -0.127441 -0.166371 0.22433 0.323993 -0.915355
1.04021 -0.164932 -0.170838 0.218026 0.318109 -0.918923
1.06483 -0.194391 -0.174899 0.211379 0.311235 -0.922963
1.03017 -0.168683 -0.173774 0.208831 0.306577 -0.925522
0.867895 -0.000224824 -0.154697 0.232518 0.327377 -0.913292
1.03893 -0.176671 -0.174509 0.208246 0.306284 -0.925736
0.872539 -0.00719715 -0.155819 0.230487 0.325162 -0.914512
0.996891 -0.128236 -0.168283 0.217399 0.315282 -0.920629
0.760095 0.112045 -0.141927 0.248482 0.341469 -0.905021
1.0788 -0.21726 -0.178982 0.202927 0.301773 -0.928419
0.931545 -0.0794048 -0.166166 0.211357 0.305423 -0.926027
1.0239 -0.17412 -0.176448 0.200567 0.296598 -0.931073
0.8057 0.0539647 -0.151045 0.228845 0.320649 -0.917507
1.01877 -0.198417 -0.183549 0.181022 0.274335 -0.942519
1.07779 -0.247587 -0.187146 0.182408 0.277838 -0.941015
1.05839 -0.240008 -0.1881 0.176652 0.270767 -0.944446
0.902421 -0.0715122 -0.168998 0.196806 0.288112 -0.935224
0.923829 -0.0863793 -0.169564 0.199139 0.291427 -0.933664
0.96717 -0.165754 -0.183231 0.133576 0.30714 -0.93053
0.98224 -0.186112 -0.185951 0.143525 0.245268 -0.941752
0.952333 -0.154581 -0.182606 0.133992 0.249361 -0.93587
0.935381 -0.145888 -0.182836 0.139156 0.128852 -0.949494
0.813268 -0.00225463 -0.16573 0.0830915 0.34477 -0.897976
0.88963 -0.0924613 -0.176517 0.118596 0.204575 -0.930907
0.802571 -0.0137957 -0.180168 0.146299 0.304432 -0.86202
0.776833 -0.0319816 -0.212628 0.287113 0.334053 -0.758247
0.698542 0.0754114 -0.188883 0.197556 0.442188 -0.764748
0.806046 -0.0272903 -0.187792 0.178053 0.298665 -0.844451
0.963838 -0.196059 -0.199759 0.206802 0.0860071 -0.925747
0.698755 0.124894 -0.15148 0.0393701 0.447411 -0.863282
0.774068 -0.0365247 -0.218064 0.310482 0.336948 -0.741973
0.838428 -0.108322 -0.225174 0.331633 0.249882 -0.769269
0.823922 -0.100364 -0.229761 0.353039 0.268593 -0.746836
0.812607 -0.0714266 -0.216231 0.297396 0.285709 -0.774337
0.743472 0.00944924 -0.20577 0.262737 0.379651 -0.752442
0.803279 -0.0391845 -0.198763 0.224828 0.300748 -0.813615
0.836652 -0.051768 -0.183897 0.157347 0.258332 -0.876569
0.923216 -0.168281 -0.208473 0.249275 0.139017 -0.873793
0.756645 -0.0408169 -0.234001 0.380286 0.357889 -0.687599
0.802646 -0.0615961 -0.216095 0.298203 0.299043 -0.767574
0.798726 -0.0777482 -0.231112 0.362241 0.30207 -0.725274
0.776087 -0.0649567 -0.237993 0.394473 0.331315 -0.690995
0.922287 -0.17538 -0.214495 0.274865 0.139372 -0.857291
0.779278 -0.0119448 -0.195762 0.215461 0.333269 -0.804356
0.70323 0.0777359 -0.183715 0.175053 0.436684 -0.781692
0.723064 0.0700882 -0.175007 0.135488 0.411457 -0.818771
0.930631 -0.171554 -0.205529 0.2358 0.12954 -0.886836
0.867344 -0.0955062 -0.194439 0.197668 0.215759 -0.870777
0.88422 -0.097904 -0.183936 0.150921 0.194749 -0.910465
0.772631 -0.178184 -0.241835 0.172903 0.442788 -0.562039
0.752459 -0.0635362 -0.245502 0.404923 0.372867 -0.642355
0.879523 -0.233434 -0.2224 0.123998 0.281111 -0.713034
0.907693 -0.191863 -0.217278 0.231101 0.184413 -0.81143
0.819148 -0.223964 -0.233377 0.105156 0.393374 -0.605056
0.932006 -0.194063 -0.212858 0.242138 0.137649 -0.856598
0.897582 -0.216758 -0.219117 0.171338 0.228731 -0.765701
0.788466 -0.0804293 -0.238956 0.392122 0.31675 -0.695012
0.764049 -0.164266 -0.243395 0.197099 0.44663 -0.559816
0.801211 -0.225623 -0.236639 0.0899965 0.431038 -0.568306
0.903907 -0.219634 -0.217967 0.169285 0.218786 -0.775045
0.782187 -0.137805 -0.240097 0.265406 0.384663 -0.622852
0.9162 -0.198557 -0.215731 0.222299 0.173759 -0.821049
0.821967 -0.17733 -0.232865 0.206669 0.342769 -0.659246
0.838406 -0.162573 -0.229876 0.248856 0.295497 -0.706745
0.758227 -0.168499 -0.244454 0.184282 0.462414 -0.544032
0.847028 -0.130379 -0.228308 0.323258 0.247138 -0.757189
0.887046 -0.216775 -0.221032 0.16448 0.249931 -0.745113
0.890948 -0.240618 -0.220323 0.116037 0.265063 -0.727837
0.76862 -0.135673 -0.242564 0.261181 0.409887 -0.598591
0.976902 -0.242772 -0.204695 0.167079 0.0943183 -0.893391
0.754386 -0.109943 -0.245152 0.306968 0.413712 -0.597667
0.812584 -0.204937 -0.234571 0.141579 0.388237 -0.612106
0.754138 -0.0874102 -0.245197 0.354975 0.392497 -0.620707
0.869046 -0.206392 -0.224305 0.175023 0.276116 -0.720814
0.874708 -0.161638 -0.223275 0.274358 0.221606 -0.778592
0.853571 -0.145086 -0.227119 0.296057 0.248155 -0.754608
0.780482 -0.157819 -0.240407 0.22152 0.407378 -0.598628
0.982844 -0.248279 -0.203614 0.159155 0.0876775 -0.899242
1.61114 -0.24039 0.00574971 0.531546 0.835357 -0.122198
1.06841 0.104794 0.00496498 0.486026 0.761103 -0.36909
0.273732 0.153457 -0.17555 -0.000502438 -0.681801 0.704684
0.245853 0.0646284 -0.234768 -4.97893e-05 -0.570219 0.816498
0.245993 0.115216 -0.201044 -0.000292711 -0.631594 0.754996
-0.0743386 0.146154 -0.180419 -0.000138752 -0.624947 0.76167
0.237815 0.140216 -0.184378 -0.000404974 -0.660788 0.725742
0.192414 0.141928 -0.183237 -0.000370325 -0.656604 0.729936
-0.0858265 0.138365 -0.185612 -9.05236e-05 -0.613916 0.772724
-0.103847 0.155066 -0.174478 -0.000153666 -0.631688 0.754916
0.140447 0.13824 -0.185695 -0.000303563 -0.644966 0.7416
0.11999 0.118483 -0.198866 -0.000189426 -0.618182 0.76844
-0.301147 0.193679 -0.148736 -0.000152702 -0.651315 0.735257
0.244722 0.0860278 -0.220502 -0.000151426 -0.596017 0.790646
0.0856877 0.130169 -0.191075 -0.000213124 -0.627626 0.758979
0.0408451 0.110475 -0.204205 -7.62657e-05 -0.597556 0.789113
-0.0188609 0.194849 -0.147956 -0.000424841 -0.691658 0.694818
0.183623 0.194819 -0.147976 -0.000615872 -0.719542 0.666869
-0.12199 0.14147 -0.183542 -7.12821e-05 -0.612696 0.773948
0.137117 0.181126 -0.157105 -0.000506246 -0.696522 0.689938
-0.236631 0.155106 -0.174451 -2.849e-05 -0.613427 0.77322
-0.379578 0.19433 -0.148303 -8.17745e-05 -0.641289 0.745306
0.210127 0.127183 -0.193066 -0.000316283 -0.641163 0.745409
0.218259 0.0617207 -0.236707 -9.78131e-06 -0.562887 0.823846
0.271875 0.054799 -0.241321 -2.71829e-05 -0.561885 0.824848
-0.275667 0.170467 -0.164211 -6.53552e-05 -0.626675 0.759947
0.2177 0.157491 -0.172861 -0.000468893 -0.678967 0.707526
0.0902187 0.0944893 -0.214861 -4.61612e-05 -0.584976 0.801717
0.196251 0.157578 -0.172803 -0.000449061 -0.676115 0.710385
0.162466 0.110349 -0.204288 -0.000190492 -0.614174 0.772455
0.174935 0.161133 -0.170433 -0.000445995 -0.677487 0.709011
-0.135881 0.19496 -0.147882 -0.000314889 -0.675657 0.710857
0.0357193 0.146149 -0.180422 -0.00024264 -0.640117 0.746464
0.179898 0.179148 -0.158424 -0.000537142 -0.700021 0.68643
-0.238946 0.195879 -0.14727 -0.000221988 -0.66256 0.723986
-0.316126 0.180544 -0.157493 -7.55211e-05 -0.633319 0.753291
-0.00204133 0.116927 -0.199903 -6.67428e-05 -0.599469 0.787198
0.11032 0.112056 -0.20315 -0.000149451 -0.609054 0.777588
-0.0880243 0.136201 -0.187054 -7.80655e-05 -0.610989 0.775657
-0.406655 0.198476 -0.145539 -7.61078e-05 -0.642584 0.74401
0.273253 0.0907033 -0.217385 -0.000200803 -0.605622 0.78102
0.225833 0.108644 -0.205425 -0.000242134 -0.620843 0.76577
0.242482 0.123261 -0.195681 -0.000328007 -0.640867 0.745704
-0.432908 0.193162 -0.149081 -2.58185e-05 -0.632519 0.754097
-0.0333069 0.186757 -0.153351 -0.000372364 -0.679851 0.70665
0.234514 0.161353 -0.170287 -0.000503302 -0.685969 0.700509
0.0906166 0.094401 -0.21492 -4.61131e-05 -0.584924 0.801769
0.267281 0.0729572 -0.229216 -0.000109994 -0.583275 0.803414
-0.0200631 0.131303 -0.190319 -0.000118724 -0.61442 0.772217
-0.04289 0.198287 -0.145664 -0.000418655 -0.692515 0.693961
0.244005 0.194236 -0.148365 -0.000670086 -0.727161 0.659231
-0.243548 0.176307 -0.160318 -0.000123709 -0.638187 0.74841
0.119686 0.0811326 -0.223766 -9.87835e-06 -0.572839 0.813877
0.112831 0.0982356 -0.212364 -8.54908e-05 -0.592638 0.794038
0.017771 0.147638 -0.179429 -0.000232843 -0.639449 0.747134
0.204023 0.0804615 -0.224213 -8.6285e-05 -0.583654 0.803036
-0.373723 0.196321 -0.146975 -9.68611e-05 -0.644512 0.742077
-0.33197 0.170227 -0.164371 -1.10453e-05 -0.61862 0.76802
-0.295237 0.160999 -0.170522 -1.43813e-06 -0.612493 0.774158
-0.104682 0.149951 -0.177887 -0.00012833 -0.625369 0.761248
-0.206248 0.175711 -0.160715 -0.000156067 -0.642608 0.743978
-0.0191976 0.177447 -0.159558 -0.000341002 -0.670505 0.716015
-0.158205 0.165596 -0.167458 -0.000152881 -0.636964 0.749631
0.162116 0.148501 -0.178854 -0.000373267 -0.660399 0.726135
-0.121885 0.167826 -0.165971 -0.000197877 -0.644677 0.741901
-0.154141 0.189525 -0.151506 -0.000271562 -0.666547 0.719987
0.0185632 0.147229 -0.179702 -0.000231625 -0.639061 0.747522
-0.0718119 0.190123 -0.151107 -0.000352162 -0.678624 0.707882
-0.0703173 0.120434 -0.197565 -1.9111e-05 -0.594308 0.792372
0.247785 0.103683 -0.208732 -0.000239053 -0.617853 0.768765
0.119951 0.108554 -0.205485 -0.000141733 -0.606134 0.780514
0.194757 0.17962 -0.158109 -0.000553437 -0.702642 0.683803
0.161396 0.132232 -0.1897 -0.000294507 -0.640568 0.746007
0.0452738 0.0972504 -0.213021 -1.69779e-05 -0.582127 0.804573
0.147414 0.117298 -0.199656 -0.000209632 -0.620527 0.76609
0.199727 0.0884899 -0.218861 -0.000120761 -0.592799 0.793873
0.464517 0.141335 -0.182991 0.0105817 0.054594 -0.247222
0.538103 0.171002 -0.162475 0.0106701 0.253992 -0.495973
0.520153 0.183718 -0.153991 0.00900219 0.163917 -0.397283
0.487548 0.186525 -0.152297 0.00764684 0.04244 -0.256674
0.50749 0.075905 -0.226954 0.0174616 0.342891 -0.550143
0.620335 0.190385 -0.148858 0.0119051 0.505419 -0.80019
0.518279 0.1837 -0.154015 0.00893916 0.157311 -0.389546
0.483424 0.198044 -0.144536 0.00655421 0.00389205 -0.217622
0.419858 0.195817 -0.146439 0.00454708 -0.21695 0.0418387
0.507601 0.135692 -0.186536 0.0125323 0.21913 -0.436706
0.496266 0.11559 -0.200196 0.0138002 0.220669 -0.427978
0.414279 0.189441 -0.150784 0.00488086 -0.223499 0.0528374
0.366308 0.146315 -0.180238 0.00678587 -0.304093 0.169685
0.475854 0.107593 -0.20573 0.0137566 0.164875 -0.358533
0.349934 0.17297 -0.16232 0.00402212 -0.417525 0.288393
0.50302 0.188984 -0.150538 0.00797718 0.092213 -0.316177
0.451628 0.165408 -0.166797 0.00815119 -0.0411149 -0.14789
0.575002 0.182335 -0.154583 0.0110068 0.361338 -0.627459
0.530725 0.0906708 -0.216827 0.0170441 0.394641 -0.618402
0.545686 0.152795 -0.174736 0.0124338 0.318701 -0.56212
0.512284 0.12008 -0.197061 0.0139819 0.268159 -0.485874
0.321333 0.190683 -0.150525 0.00157479 -0.555756 0.44079
0.415798 0.128819 -0.191756 0.00993525 -0.0922211 -0.0689541
0.473094 0.190543 -0.149671 0.00681707 -0.0171731 -0.189056
0.594499 0.184723 -0.152847 0.0114818 0.425534 -0.703793
0.423084 0.177588 -0.158742 0.00616235 -0.167654 -0.00627033
0.401507 0.180486 -0.156917 0.00517952 -0.250204 0.0887612
0.0958949 0.216798 -0.118581 0.0144721 -0.785152 0.565335
0.153865 0.223209 -0.108929 0.00842779 -0.759198 0.604605
-0.0376573 0.223064 -0.109147 0.0264344 -0.826623 0.496157
0.231136 0.231586 -0.0963183 0.000386882 -0.72475 0.656779
-0.0270708 0.232711 -0.0946238 0.0245397 -0.8145 0.511908
0.17844 0.235685 -0.0901478 0.00495514 -0.739696 0.631129
0.101551 0.228404 -0.101109 0.012858 -0.773056 0.58028
0.248007 0.221826 -0.111011 -0.000287567 -0.727322 0.65644
-0.176244 0.234675 -0.0916675 0.0383709 -0.865208 0.429543
0.228342 0.215565 -0.120437 0.00214408 -0.739686 0.638982
0.133154 0.237525 -0.0873778 0.00903797 -0.754007 0.607384
0.194605 0.212153 -0.125573 0.00563181 -0.754512 0.616452
0.00413378 0.231303 -0.0967441 0.0217395 -0.804762 0.528128
0.224946 0.224888 -0.106401 0.00159333 -0.732759 0.646499
0.235149 0.207838 -0.132069 0.00222543 -0.744024 0.635011
0.27627 0.212086 -0.125615 -0.000803913 -0.695265 0.617407
0.370027 0.207387 -0.132122 0.00247184 -0.376611 0.238168
0.326633 0.203658 -0.138022 0.00101128 -0.541558 0.425894
0.376831 0.20103 -0.141676 0.00276618 -0.371283 0.223081
0.414649 0.211027 -0.126348 0.00397558 -0.207567 0.0455285
0.264794 0.221702 -0.11117 -0.00128991 -0.707516 0.645133
0.310813 0.205266 -0.135693 0.000450854 -0.592915 0.488202
0.359257 0.215444 -0.120027 0.00202484 -0.390972 0.266189
0.399958 0.216863 -0.11763 0.00341432 -0.242409 0.0944082
0.303996 0.213979 -0.122584 0.000133922 -0.591318 0.49847
0.399316 0.203358 -0.138021 0.00351926 -0.284642 0.124991
0.303717 0.205913 -0.134762 0.000200197 -0.616173 0.516303
0.369664 0.204456 -0.136548 0.00248689 -0.386569 0.245733
0.260378 0.222411 -0.110128 -0.00144879 -0.721082 0.661988
0.304142 0.226806 -0.10322 1.82682e-05 -0.552849 0.471347
0.376575 0.217147 -0.117348 0.00260571 -0.324508 0.190826
0.494674 0.209924 -0.127513 0.00674419 0.073018 -0.284177
0.334988 0.199444 -0.144331 0.00133889 -0.524392 0.399946
1.46291 -0.245143 0.533186 0 0 -1
1.30647 -0.223875 0.533186 0 0 -1
-1.30593 0.278511 0.387264 0 0 1
-1.53959 0.268617 0.387264 0 0 1
-1.53698 0.309508 0.387264 0 0 1
-1.5871 0.276968 0.387264 0 0 1
-1.58069 0.264797 0.387264 0 0 1
-1.48799 0.303298 0.387264 0 0 1
-1.57204 0.309133 0.387264 0 0 1
-1.52862 0.285368 0.387264 0 0 1
-1.49634 0.296188 0.387264 0 0 1
-1.51034 0.299075 0.387264 0 0 1
1.44184 -0.241522 0.465778 0.111401 0.993658 1.51992e-06
1.45505 -0.242719 0.333336 0.10515 0.994326 1.50651e-06
1.48461 -0.245395 0.0767141 0.0911394 0.995823 1.47437e-06
1.45229 -0.242469 0.196106 0.106585 0.994173 1.51827e-06
1.47066 -0.244132 0.0921148 0.0978328 0.995108 1.49528e-06
1.4488 -0.242152 0.303383 0.108181 0.994002 1.51789e-06
1.44231 -0.241565 0.394611 0.111229 0.993677 1.52304e-06
1.44712 -0.242 0.171795 0.10909 0.993905 1.52765e-06
1.45369 -0.242595 0.0990805 0.105988 0.994237 1.52136e-06
1.36269 -0.231814 0.41014 0.0857561 0.995296 1.27105e-06
1.3544 -0.230792 0.274203 0.0822683 0.99553 1.08336e-06
1.35584 -0.23097 0.44022 0.0834261 0.995448 1.24929e-06
1.33899 -0.228895 0.517306 0.0777131 0.995821 1.19879e-06
1.37702 -0.23358 0.287892 0.0903971 0.994995 1.26096e-06
1.34108 -0.229152 0.277834 0.0775299 0.995842 9.89781e-07
1.3479 -0.229992 0.488176 0.080779 0.995621 1.23638e-06
1.34627 -0.229792 0.362096 0.0797108 0.995695 1.10651e-06
1.34719 -0.229905 0.451206 0.0803833 0.995648 1.19661e-06
1.35265 -0.230577 0.128249 0.0810784 0.995613 9.33969e-07
1.38383 -0.234418 0.235807 0.0926233 0.994851 1.26174e-06
1.33973 -0.228986 0.468201 0.0777883 0.995818 1.15823e-06
1.34016 -0.229038 0.190777 0.076862 0.995888 9.0153e-07
1.35494 -0.23086 0.242054 0.0823389 0.995527 1.05724e-06
1.34686 -0.229864 0.191471 0.0792585 0.995731 9.51025e-07
1.36378 -0.231948 0.201558 0.0853356 0.995331 1.08368e-06
1.34208 -0.229275 0.324237 0.0780652 0.995805 1.04048e-06
1.39481 -0.23577 0.24196 0.0965654 0.994591 1.34746e-06
1.38106 -0.234077 0.287902 0.0918375 0.9949 1.29036e-06
1.34967 -0.23021 0.136512 0.080046 0.995681 9.19986e-07
1.35664 -0.231068 0.384434 0.0834955 0.995446 1.20288e-06
1.26347 -0.226868 0.439164 0.0369042 0.998864 8.51938e-07
1.28699 -0.227487 0.258434 0.0491592 0.99795 8.50534e-07
1.2632 -0.226861 0.209605 0.0367618 0.998874 8.71091e-07
1.27773 -0.227243 0.212075 0.0443313 0.99831 8.60799e-07
1.27619 -0.227203 0.26653 0.0435318 0.998369 8.57366e-07
1.26206 -0.226831 0.428339 0.0361675 0.998919 8.53814e-07
