0.735361 -0.150326 -0.358625 0.308107 0.926498 0.00591076
-0.125646 -0.17878 -0.576946 0.321929 0.917355 0.0296879
-0.705734 -0.0990719 -0.805619 0.274877 0.936527 0.0115374
-0.0716504 -0.0722929 0.584566 0.357908 0.905806 0.0272271
0.92447 -0.187541 -0.194565 -0.0102091 -0.014696 0.986073
0.675217 0.0911273 -0.238074 0.260084 0.414244 0.358989
0.698952 0.0870982 -0.0605876 0.548702 0.796732 0.0579868
-0.898545 -0.231964 0.51861 0.52571 0.817119 0.032272
0.726387 -0.159095 0.425636 0.562639 0.794816 0.0250211
0.7061 -0.236236 -0.349398 -0.00417373 0.00212692 0.984151
-0.453569 0.070492 0.374629 -0.000289105 0.00594534 0.983523
-0.42642 -0.0753629 0.546124 0.254476 0.329432 0.443772
0.958719 -0.15698 0.23683 0.743678 0.622167 0.0498557
-0.945737 0.0682076 -0.500498 0.691893 0.678938 0.0471608
-0.701143 0.112967 0.524436 0.690099 0.682526 0.0409781
-0.675796 0.100216 0.112832 0.673509 0.704171 0.0271281
0.247848 0.0668589 -0.574767 0.634083 0.738026 0.0602609
0.685634 0.0159861 0.41246 -0.0332107 -0.0182005 0.988381
-0.147478 -0.268512 0.564912 0.845965 0.479201 0.0298891
0.945113 -0.113573 -0.299207 0.859785 0.463085 0.00487388
-0.495203 -0.0597584 0.583033 -0.0415774 -0.0131784 0.989067
-0.982281 -0.131685 -0.474957 0.951688 0.230589 -0.00970995
-0.878272 0.0774745 0.0161279 0.934153 0.269269 0.0329753
0.958057 0.0271821 0.290843 0.944675 0.256527 -0.00659634
-0.693013 -0.0676634 0.545243 0.114787 -0.00155902 -0.967525
-0.791448 0.0275801 -0.777769 0.0194802 -0.00147586 -0.97831
-0.797729 -0.127778 -0.516775 0.128136 0.0154287 -0.965772
-0.697939 0.0822768 0.771775 0.0641385 0.0322331 -0.972414
0.688332 0.0467075 0.160481 0.0611379 0.0965623 -0.967554
0.517067 0.0201299 0.554265 0.0404929 0.0847515 -0.969776
-0.605363 0.170106 0.0396782 0.0364356 0.0620538 -0.972316
-0.921227 0.0415483 -0.510272 0.0261451 0.0685053 -0.97215
-0.927428 -0.00999831 -0.181272 0.0352112 0.0461431 -0.974018
0.37387 -0.0830731 -0.586888 0.0503979 0.072909 -0.970517
0.617384 -0.158328 0.573387 0.0289062 0.111055 -0.96743
0.934936 -0.043691 -0.281656 -0.0255445 0.135619 -0.964875
-0.725454 0.054629 0.247054 -0.0128318 0.114976 -0.967316
0.234175 -0.152752 0.621985 0.0164159 -0.0332272 -0.875163
-0.111658 -0.0538272 0.589746 0.0167691 -0.0333871 -0.88858
0.730994 0.0809102 0.169725 -0.287541 0.695463 -0.272778
-0.000526812 -0.0142244 -0.618683 -0.0404537 0.122478 -0.965784
-0.65156 -0.155386 -0.438515 -0.0138409 0.0723947 -0.972154
-0.831109 0.188223 0.500362 -0.00110024 0.0135978 -0.979116
-0.906879 0.0978895 -0.548843 -0.0188835 0.0287313 -0.976571
-0.890212 0.0166982 0.617267 -0.0521579 0.0672152 -0.97083
-0.694857 0.118382 0.751718 -0.0616047 0.0910899 -0.967954
-0.84403 0.190137 -0.621531 -0.0292868 0.0408703 -0.974765
0.733719 -0.206364 0.375829 0.0240141 -0.0280086 -0.945963
0.862264 -0.10872 -0.431178 -0.336826 0.305704 -0.60982
0.735322 0.0726964 -0.14131 -0.072837 0.0642981 -0.969411
0.721543 0.0209617 -0.297296 0.03985 0.00926705 -0.751227
0.816221 -0.0968757 0.662234 -0.117923 -0.004395 -0.967031
-0.712849 0.10696 0.633542 -0.0796202 0.00718758 -0.971405
-0.248708 -0.00121582 -0.547832 -0.873474 -0.195734 -0.108189
-0.647653 -0.13239 0.8076 -0.589016 -0.323748 -0.361989
-0.195575 -0.134294 0.634561 -0.112935 -0.0646204 -0.965646
0.644372 0.0707221 -0.128897 -0.0919545 -0.0597017 -0.968015
-0.623415 -0.151777 0.484399 -0.0979661 -0.041801 -0.968397
0.549027 0.141029 0.177278 -0.377898 -0.739 -0.185886
0.247362 0.00972808 0.580053 -0.400951 -0.586252 -0.319024
-0.421367 -0.0761451 -0.490813 -0.0396211 -0.040542 -0.974163
-0.59172 -0.0505673 -0.437654 -0.0172814 -0.0561385 -0.973797
0.756142 -0.171563 0.421982 -0.0282697 -0.123977 -0.96605
0.397788 -0.0885308 0.627778 -0.0600328 -0.950146 -0.0427673
0.495716 -0.274339 -0.568946 -0.00390846 -0.0555696 -0.97414
-0.717267 -0.1899 -0.569712 0.0160534 -0.111481 -0.967662
0.909498 0.0470916 0.0905172 0.0247821 -0.116415 -0.966923
0.487378 -0.285768 -0.579108 0.0230458 -0.133645 -0.96503
-0.249138 -0.0786583 0.606823 0.0512504 -0.0865991 -0.969069
0.503588 0.0552715 0.399309 0.0954794 -0.0981831 -0.964921
-0.683864 0.101912 0.868764 0.689912 -0.0104054 -0.346313
0.905535 0.0758905 -0.556591 0.13632 -0.002868 -0.965024
1.00035 0.147348 -0.0502949 0.118431 -0.011183 -0.966929
-0.80848 0.105586 -0.432818 0.0265026 -0.014335 -0.977286
-1.05032 -0.0286803 -0.0326123 0.137554 -0.0236816 -0.964585
-0.713122 -0.102039 -0.454636 0.0910097 0.00322177 0.970268
-0.92586 0.155834 -0.505954 0.0492567 -0.00631688 0.97503
-0.903918 -0.0267475 -0.59043 0.0797383 -0.0389447 0.970428
-0.382079 -0.0760835 -0.587788 0.119845 -0.0731795 0.964558
-0.72068 0.107017 -0.75914 0.0467226 -0.0305214 0.974161
-0.813477 0.0875553 -0.0489188 0.0183568 -0.044187 0.975064
0.992523 0.0778237 -0.0760022 0.0127353 -0.0160639 0.978236
-0.836517 0.0915 0.554469 0.00958774 0.0357328 0.840531
-1.09443 0.0982583 0.00215798 0.186293 -0.924386 0.0531738
-0.433464 -0.0674067 -0.478908 0.159401 -0.911879 0.0728949
0.868119 -0.124636 -0.678775 -0.132925 -0.863752 0.135755
0.694943 -0.161184 -0.528929 -0.210654 -0.749884 0.240958
-0.899031 -0.00577542 0.630705 -0.0568445 -0.11437 0.966037
-0.739266 0.126782 -0.598384 -0.0793821 -0.105487 0.965513
-0.464931 -0.0157946 0.498536 -0.329767 -0.617159 0.332781
0.996982 -0.0235386 0.39074 -0.0147869 -0.0280463 0.977097
0.285403 -0.208514 0.618334 0.00254312 -0.00877916 0.980041
-0.826292 -0.125259 -0.575242 -0.103962 -0.0653585 0.966533
0.886385 0.0249499 -0.198076 -0.0717018 -0.0158779 0.972143
-0.833676 -0.19937 -0.622726 -0.0822353 -0.0216064 0.970817
0.355246 0.0580387 -0.537241 -0.130367 -0.0289644 0.965292
0.569844 -0.162734 0.600854 -0.0791798 -0.0302364 0.97091
-0.593202 -0.0158347 0.595509 -0.0106424 -0.0109136 0.979299
-0.0639777 -0.178929 0.563525 -0.113052 0.0376926 0.966956
0.830907 -0.186335 0.315552 -0.0684942 0.0184867 0.972421
-0.515869 -0.0597402 -0.450321 -0.0336853 0.0163917 0.976248
0.337716 -0.156 0.632245 0.0182003 -0.0317994 0.901823
0.715448 -0.113724 0.483221 -0.0413045 0.0387926 0.974055
0.891122 -0.121927 -0.522969 -0.040914 0.0411155 0.974059
0.355819 -0.216575 -0.621063 -0.039164 0.0559637 0.972738
0.707402 -0.184733 0.499454 -0.0184375 0.0709302 0.972179
-0.946808 -0.0368838 -0.258462 -0.000246839 -0.0232887 0.98303
-0.843621 0.206674 -0.520617 -0.0383652 0.135283 0.964503
0.653787 0.144486 -0.157957 -0.0115322 0.0131506 0.978933
0.980103 0.146255 -0.0626714 0.0178916 0.0890378 0.970153
0.609799 0.0846291 0.0652775 0.0453554 0.108973 0.967074
1.06796 0.107646 -0.0276234 0.0323998 0.098035 0.968827
-0.516631 0.140082 0.156462 0.0484874 0.0933798 0.968536
-0.886361 -0.0406867 -0.00434255 -0.01416 -0.0105945 0.982295
-0.448589 0.0439369 -0.357607 0.0593164 0.1026 0.967062
0.239719 0.00748239 0.612652 0.0516519 0.123301 0.96529
-0.67048 0.119201 0.853524 0.611885 0.703192 0.0657555
-0.748034 0.0880819 0.512241 0.819959 0.466629 0.0590305
-0.264724 -0.121102 -0.565553 0.131161 0.0593714 0.964122
-0.267805 -0.0581098 0.536321 0.121099 0.0522948 0.965485
0.499519 -0.0230657 -0.588528 0.13591 0.000374767 0.96514
-0.530024 -0.0967637 -0.432007 0.967904 -0.0642418 -0.0559732
-0.227393 0.00780134 0.535922 0.971829 -0.0668353 -0.0343387
-0.859161 0.0405429 -0.524895 0.96671 0.0697332 -0.0564906
0.815927 -0.114801 0.290171 0.972949 -0.00732135 -0.0254211
0.523903 0.100186 0.198511 0.973318 0.0608008 -0.0202722
-0.676802 -0.0822764 0.541016 0.966678 0.0740201 -0.0564708
-1.00593 -0.0478036 -0.0630094 0.970465 -0.00690984 -0.039168
0.354419 0.0814166 0.567017 0.973397 0.0216777 -0.0216154
-0.91479 -0.251923 0.519043 0.970024 -0.0853834 -0.0451842
-0.864564 -0.238676 -0.571008 0.966579 0.0238736 -0.0593035
0.902576 0.00664598 0.14549 0.934001 0.253139 -0.0540895
-0.960116 -0.0435767 0.221316 0.943633 0.212008 -0.0609822
-0.364767 -0.00926179 -0.480856 0.953741 0.215859 -0.00141726
0.504783 0.148587 -0.191915 0.909281 0.344577 -0.0564547
-0.672448 -0.0193855 -0.718017 0.943301 0.244433 -0.0166888
0.504497 -0.057897 -0.596607 0.964084 0.134951 -0.0610307
-0.0636926 -0.126423 0.624833 0.917612 0.317043 -0.0509915
0.658714 -0.0891799 0.584173 0.942481 0.235092 -0.03435
0.804217 -0.117857 -0.58001 0.944436 0.217947 -0.0482492
0.559469 0.0655081 0.318942 0.931749 0.2689 -0.0437443
0.804933 0.0745515 -0.124061 0.941137 0.242858 -0.0305051
-0.347305 -0.00593633 -0.498987 0.0189995 0.00506333 -0.981905
0.78146 -0.082813 0.729194 0.877067 0.421263 -0.0353587
0.861535 -0.0177199 0.675464 0.884316 0.400506 -0.0565342
0.69967 -0.0151391 0.520509 0.890662 0.389232 -0.0564021
0.933026 0.0191612 0.531113 0.888333 0.394841 -0.0524647
-0.61439 -0.117128 -0.493853 0.852214 0.467435 -0.0304205
-0.537631 -0.101509 0.634354 0.881055 0.41695 -0.0277656
1.05942 -0.0641501 0.175665 -0.0208162 -0.0258974 -0.987859
0.797478 -0.106049 -0.726989 -0.0294259 -0.0306708 -0.988919
0.839927 -0.132203 -0.53574 0.750315 0.618845 -0.0410346
-0.92842 0.00621583 -0.35823 0.712254 0.656935 -0.0478525
0.880484 -0.188867 -0.333161 0.735958 0.640854 -0.0143896
-0.522266 0.000520238 -0.420069 0.67828 0.701412 -0.0138775
0.855685 0.0807618 0.491206 0.650722 0.721035 -0.0492371
-0.806682 0.22224 0.424911 0.687332 0.689001 -0.0250724
0.657699 0.0670005 -0.0741617 0.718937 0.662252 -0.000749191
-0.96724 0.00509229 -0.114135 0.753597 0.617523 -0.032941
0.120648 -0.0673855 -0.588705 -0.0100445 -0.0286453 -0.987509
-1.06732 0.154866 -0.0239913 0.50269 0.826188 -0.0576339
-0.49053 -0.134572 -0.461767 0.574896 0.784484 -0.042124
-0.184686 -0.118035 -0.568353 0.520605 0.820856 -0.0301931
-0.142076 -0.129908 -0.577093 0.538848 0.811501 -0.020718
0.709566 -0.175384 -0.388925 0.539248 0.817069 0.00664787
0.95091 0.112584 -0.519331 0.473337 0.851863 -0.0229074
0.546067 -0.00119676 0.543838 0.299193 0.920568 -0.0526958
0.898168 -0.0999812 0.533334 0.351193 0.908601 -0.0291248
-0.825463 0.0353713 0.727858 0.283121 0.931951 -0.0193574
-0.657103 0.0179214 0.710811 0.256749 0.933668 -0.054315
0.753454 -0.278922 0.413188 0.000630805 -0.0265146 -0.987087
0.725854 -0.282914 0.265964 0.0466301 0.300785 -0.726035
-0.505128 0.0535309 -0.336719 0.154137 0.960969 -0.0526016
-0.256745 -0.00562675 -0.553223 0.127796 0.96547 -0.035678
-0.845545 -0.106209 0.536075 0.0729486 0.969265 -0.0312716
0.72265 0.126073 0.164662 0.0714205 0.974824 -0.00099469
0.73423 -0.2779 0.308667 0.0969674 0.96712 -0.0358736
-0.806187 -0.034641 0.75031 0.0625397 0.96516 -0.0571189
1.00063 0.117717 -0.0893207 0.00507306 0.0129689 -0.982777
0.517825 -0.254953 -0.576682 -0.0929929 0.9673 -0.0588092
-0.726693 -0.0306756 0.700554 -0.227681 0.947887 -0.0185061
-0.643822 0.00458433 0.793407 -0.165851 0.959967 -0.0197977
0.753571 0.0417391 -0.161396 -0.220826 0.941982 -0.0580008
0.67151 -0.211727 0.549698 -0.136435 0.964691 -0.0259673
0.731138 -0.269197 0.412394 -0.17987 0.957341 -0.0188911
0.000260688 -0.194373 -0.564142 0.0115854 -0.0111271 -0.985826
-0.776728 0.177247 -0.415979 0.0241724 -0.031572 -0.988599
0.865486 -0.153062 0.249349 -0.439736 0.861198 -0.0595947
0.906648 0.109175 -0.134019 -0.455727 0.861246 -0.0209802
-0.373078 -0.150905 0.500488 -0.466205 0.854267 -0.0306903
0.932176 0.120953 0.519503 -0.399118 0.889893 -0.0137672
-0.330776 -0.0554356 -0.617705 -0.404317 0.881566 -0.042878
0.760664 -0.159315 0.400912 -0.00314312 0.0159786 -0.982493
0.17803 0.0062573 0.602916 0.0255301 -0.028801 -0.988451
0.860688 -0.0551324 0.16 -0.538789 0.809875 -0.0601391
1.05021 -0.126626 0.0950478 -0.634038 0.745834 0.0080611
-0.095332 0.00431566 -0.548963 -0.691701 0.684257 -0.0474143
0.860928 -0.0135286 -0.523562 0.0179298 -0.00486048 -0.986106
-0.731377 0.0990822 -0.257472 -0.0179048 0.0222697 -0.980964
0.911667 -0.230738 0.20838 -0.79387 0.559721 -0.0339301
0.768475 0.16268 0.131898 -0.776484 0.576466 -0.0584146
0.512449 0.116466 -0.185917 -0.75867 0.612091 -0.0240042
0.906353 -0.134096 0.536395 -0.790043 0.568423 -0.0231587
0.196505 -0.00711334 -0.536801 -0.766518 0.590404 -0.0584713
0.990163 0.0128412 0.49443 -0.815433 0.53366 -0.0206191
0.705799 0.0429783 0.0817461 -0.182107 0.0258345 -0.718763
-0.683048 0.107909 0.861804 -0.923611 0.293212 -0.0568015
-0.0591659 -0.162478 -0.594759 -0.884069 0.405942 -0.0359542
-0.825938 0.00131642 -0.606451 -0.915732 0.344835 0.00565354
1.04753 -0.0813225 -0.232268 -0.87165 0.43078 -0.0505358
0.591937 0.104103 -0.168177 -0.899908 0.355172 -0.0555297
-0.820841 0.0588132 0.284035 0.0144776 0.00343955 -0.985692
-0.524043 -0.101284 0.591203 0.0426958 0.000670463 -0.988956
-0.808185 0.0295769 0.563445 -0.972156 0.10599 0.00233135
-0.617673 0.0598315 -0.234073 -0.958001 0.163993 -0.0379136
0.504482 -0.0965383 0.627076 -0.957315 0.164412 -0.041422
-0.98141 -0.122414 0.490261 -0.948542 0.208991 -0.0607559
-0.0613626 -0.226796 0.59772 -0.952834 -0.169316 -0.0584608
0.698087 -0.125188 0.494563 -0.966561 -0.0685681 -0.057574
-0.748773 0.253083 -0.736482 -0.966232 -0.144782 -0.00302654
-0.85767 -0.0808188 0.475646 -0.969235 -0.101106 -0.0188325
-0.845403 -0.244952 -0.584266 -0.967978 -0.105233 -0.022682
-0.754937 0.117944 0.287407 -0.960094 -0.156742 -0.0278884
-0.562368 0.0706229 -0.173595 -0.95151 -0.176211 -0.0606315
0.516891 0.122167 -0.167446 -0.889254 -0.382463 -0.0534888
-0.767984 -9.5397e-05 0.310557 -0.925818 -0.28948 -0.0592962
0.65385 0.0242805 0.434264 -0.924552 -0.31071 -0.0215956
0.822051 -0.120822 -0.642597 -0.893631 -0.386053 -0.0235283
-0.304902 -0.0710967 0.609387 -0.87927 -0.410664 -0.04605
-0.48727 -0.0992957 0.532264 -0.919793 -0.311077 -0.0452734
-0.547299 0.0549422 -0.409555 0.000550372 0.00472649 -0.98444
0.935453 0.0959277 0.510051 -0.76254 -0.597369 -0.0507857
-0.533031 -0.0584228 -0.427289 -0.757679 -0.60114 -0.0600251
-0.418438 -0.0633196 0.487996 -0.825118 -0.517222 -0.0359222
0.865884 0.0904508 -0.648484 -0.792881 -0.556317 -0.0508019
-0.730464 -0.129368 0.536613 -0.767012 -0.589753 -0.0559431
0.959586 -0.143563 -0.545873 -0.792047 -0.5665 -0.0209812
0.724329 -0.116772 -0.335833 -0.63565 -0.74064 -0.00984032
0.153431 -0.267378 0.611273 -0.668977 -0.70361 -0.0524467
0.0044333 -0.11368 0.596502 -0.602281 -0.761039 -0.0388361
0.624871 -0.00354553 0.567544 -0.400725 -0.884281 -0.0366857
0.784789 -0.0848023 0.722375 -0.396073 -0.892264 -0.00729335
-0.529387 0.0627169 -0.397804 -0.353087 -0.907292 -0.0313094
0.56523 -0.0261774 -0.418271 -0.418915 -0.873922 -0.0466437
0.742764 -0.0753872 0.326547 -0.00404194 0.029329 -0.987372
0.747864 -0.110227 -0.222668 0.000410278 0.0408108 -0.988729
-0.917393 -0.133016 0.562124 -0.00354691 0.0277236 -0.987191
-0.679585 0.137178 0.0481979 0.000442943 0.0249608 -0.986901
-0.60005 -0.0662303 0.533834 -0.111835 -0.963959 -0.0502103
-0.746508 -0.20973 -0.5579 -0.228832 -0.946858 -0.0271671
0.110461 -0.0617985 0.558866 -0.266657 -0.934083 -0.0592172
-0.611796 0.0464019 0.345795 -0.110563 -0.964966 -0.0459864
0.63976 -0.0165133 0.25481 -0.148269 -0.96233 -0.0228849
0.382286 0.0081401 -0.60835 -0.217371 -0.951908 -0.0110227
-0.0518391 -0.10388 0.630377 -0.167557 -0.954909 -0.0441721
0.825039 0.0561925 -0.169766 -0.00348445 -0.00176736 -0.983894
-0.939283 0.117341 0.00636886 -0.00373465 0.0339702 -0.987956
1.05648 -0.031443 -0.307132 -0.00160427 -0.167254 -0.862305
0.525748 -0.089349 0.620079 0.0906351 -0.970494 -0.0164397
0.490543 -0.0188505 -0.488579 0.0808471 -0.971131 -0.0167653
1.07781 -0.0236674 -0.109104 0.11648 -0.966608 -0.0277527
-0.89641 0.22259 -0.47447 0.0754299 -0.968228 -0.034943
-0.466777 -0.0894092 -0.50831 -0.00394733 -0.974503 -0.0314774
0.953668 0.0571746 -0.130618 0.031158 -0.976749 -0.00525577
0.876264 -0.202598 -0.568068 0.0453786 -0.976352 -0.00185539
0.749899 -0.0706108 0.26838 0.0778295 -0.9634 -0.0606891
-1.06383 0.137385 -0.0407349 0.0627276 -0.964369 -0.061272
-0.745876 -0.205612 0.599772 0.188064 -0.955427 -0.0614114
-0.95973 0.124002 0.15919 -0.00408428 -0.0142046 -0.982735
0.00380858 -0.103553 -0.594609 -0.0156974 0.0231518 -0.987213
0.360289 0.0895904 0.597984 0.383724 -0.893777 -0.0451128
0.656844 -0.12461 -0.6173 0.391161 -0.888954 -0.0574057
-0.00497407 -0.163266 -0.603761 0.25427 -0.941862 -0.0196468
0.714509 0.174509 0.166806 0.353071 -0.905035 -0.0397541
-0.286224 -0.133044 -0.52725 -0.00469963 -0.00193412 -0.984194
-0.710029 0.0928807 -0.276002 0.00453283 -0.0176437 -0.982115
-0.903279 0.0170775 -0.239397 -0.0103974 0.0116714 -0.985825
-0.738995 -0.0299198 0.546336 0.518268 -0.816614 -0.0569772
0.253268 -0.145482 0.61776 0.496829 -0.840593 -0.00986946
-0.984316 0.0303588 -0.360165 0.515624 -0.822552 -0.0373018
0.989349 0.00430883 -0.104301 0.584254 -0.775744 -0.0487523
0.455833 -0.00963051 0.605631 0.536759 -0.813633 -0.0152612
1.08241 0.0285124 -0.119643 0.501427 -0.838175 -0.00729774
0.664241 0.0628028 -0.106021 0.506843 -0.837168 0.00429887
0.358776 -0.144161 -0.606056 0.547573 -0.801354 -0.0398784
0.0327298 0.000984372 0.576748 0.0155216 -0.0239012 -0.980947
-0.283782 -0.136559 0.555008 0.676849 -0.703057 -0.0177167
-0.895476 -0.111705 -0.491881 0.740417 -0.625216 -0.0516642
-0.134131 -0.0662476 -0.585117 0.704178 -0.675991 -0.00826401
0.537105 0.132622 -0.0786278 0.721238 -0.656172 -0.0133468
0.857639 -0.0677373 -0.276196 -0.00351005 -0.00725853 -0.984091
-0.801683 0.213042 0.51302 0.83607 -0.488871 -0.0527469
0.727698 -0.108094 -0.392428 0.816986 -0.527879 -0.043244
0.814791 -0.0309121 0.13613 0.834532 -0.489783 -0.0578471
0.822921 -0.106348 -0.583586 0.862619 -0.447075 -0.0331673
0.52781 0.0676585 0.608764 0.00178037 -0.00746021 -0.983706
0.598886 0.0126469 0.286599 -0.0199573 0.000687738 -0.986316
-0.992306 0.0237826 -0.489256 0.937426 -0.272348 -0.0112672
-0.000385226 0.0402257 0.608885 0.956118 -0.197105 -0.0111205
-0.736334 0.042808 0.115049 0.941824 -0.26339 0.00043662
0.913788 -0.0266079 -0.54047 0.938753 -0.264341 -0.0148094
-0.825903 0.223111 -0.519469 0.934934 -0.270826 -0.026697
-0.353255 0.0781963 -0.482082 0.951403 -0.227005 0.00341549
-0.9954 -0.0137922 -0.318618 0.939056 -0.23918 -0.0467499
-0.710665 0.0587443 0.148373 0.945297 -0.254055 0.00666185
0.936236 -0.0790344 -0.400133 0.0275854 0.0102817 0.97724
-0.698724 0.0944475 0.515259 0.0965225 0.00961933 0.969452
0.907679 -0.00156969 0.323126 0.0404902 0.0171986 0.975495
-0.949486 -0.012744 -0.201345 0.0382858 0.0292999 0.975219
0.759781 -0.0631866 0.497142 0.128094 0.0619889 0.964329
1.05817 0.126386 -0.0450356 0.0775948 0.0435281 0.970456
0.925935 0.141134 0.559625 -0.00111722 0.00882669 0.980021
-0.819506 -0.0308549 0.518488 0.0762372 0.0478565 0.97027
-0.450918 0.0516308 -0.392722 -0.0415946 0.00882501 0.670532
0.707675 -0.0960945 0.534157 0.0824644 0.0817961 0.967328
-0.613831 0.0486476 -0.20943 0.0699944 0.110603 0.965706
0.555134 0.0905398 -0.100965 -0.00448024 0.00858549 0.979839
0.575419 0.148002 -0.214233 0.0549363 0.110704 0.966422
0.899332 -0.180565 0.225203 0.0124889 0.028081 0.977004
1.04441 0.0272471 -0.31189 0.0324907 0.0673657 0.971981
-0.792128 0.0177595 0.499402 0.00872593 0.127453 0.966046
-0.702009 0.0318437 0.640218 0.00223499 0.0932116 0.970021
-0.994804 0.0189122 -0.280962 0.00850991 0.101862 0.968918
-0.929652 -0.0350422 -0.28334 0.00686162 0.0338393 0.976574
-0.428759 0.0506141 0.361209 -0.085475 0.686398 0.341183
0.420582 -0.081039 -0.575989 -0.0116113 0.0940053 0.969723
-0.729478 0.0180052 -0.682129 0.00454858 0.142529 0.96432
-0.704505 -0.0590247 0.492694 -0.0446755 0.117863 0.96615
-0.0573773 -0.184205 -0.584404 -0.0339995 0.0489081 0.973724
-0.552118 0.129598 -0.171782 -0.00348483 -0.00860288 0.981126
-0.766693 0.199384 0.502085 -0.0557479 0.0639415 0.970948
1.04789 -0.116332 0.271805 -0.671224 0.623755 0.0835357
-0.89867 0.122764 -0.50156 -0.450776 0.423668 0.422991
0.542068 0.0867601 -0.405226 -0.396146 0.38044 0.502144
0.55152 0.00146249 0.542943 -0.0966412 0.104826 0.964294
0.809845 -0.0463438 -0.264597 -0.0438957 0.0240171 0.974984
0.574819 -0.181381 -0.555042 -0.103257 0.0847478 0.965309
0.932371 0.0103496 0.176912 -0.593726 0.267944 0.388
-0.751838 -0.215078 0.430905 0.00362496 -0.0472794 0.581351
-0.380748 -0.211333 0.476964 -0.0946726 0.0214903 0.969442
-0.340572 0.0772419 -0.450315 -0.0569012 0.0174786 0.973729
-0.788406 0.130831 -0.492139 -0.124936 0.0296353 0.965867
0.725041 -0.0859454 -0.349913 -0.137396 -0.010484 0.964839
0.136693 -0.258008 -0.589041 -0.112712 0.00778341 0.967655
0.490098 -0.0979521 0.607631 -0.79487 -0.299371 0.165711
-0.618196 -0.157561 -0.421642 0.00691115 -0.00512082 0.981127
0.838877 -0.146399 0.540571 -0.0205553 -0.00992293 0.977956
0.580122 0.00518402 -0.559805 -0.538756 -0.347235 0.399365
0.829302 -0.0880104 -0.521376 -0.0650812 -0.0335743 0.972161
-0.000271873 0.00751701 -0.598949 -0.117265 -0.0609301 0.965441
0.933547 -0.112261 -0.53418 -0.0400832 -0.0321876 0.974737
-0.581397 -0.0804796 0.660059 -0.0605594 -0.0357238 0.972495
-0.936749 0.00953993 -0.344556 0.00980958 -0.0046929 0.981235
-0.84483 0.116002 -0.00888073 -0.0697587 -0.0349479 0.971618
-0.632228 0.0934481 0.283036 -0.0447219 -0.0218244 0.974842
-0.717867 0.192793 -0.735 -0.0632385 -0.0721255 0.96962
0.771231 0.170652 0.0483017 -0.00392252 -0.00911191 0.97947
-0.430154 -0.204224 -0.460633 -0.0864478 -0.0904814 0.966258
0.265802 0.062521 -0.537858 -0.0163961 -0.0168167 0.977832
-0.876056 -0.214884 -0.490105 -0.104241 -0.0871916 0.965036
-0.779179 0.0319141 0.783458 -0.326959 -0.640439 0.312113
0.511361 0.0850749 -0.468851 -0.0520563 -0.0826609 0.969367
-0.124006 -0.189603 0.547063 -0.0555275 -0.0970128 0.967773
-0.638503 -0.0146621 0.846233 -0.0629163 -0.0907491 0.967924
0.807087 -0.0701754 -0.59335 0.0060227 -0.00263268 0.980621
0.931914 -0.0797901 0.264247 -0.0637224 -0.0916599 0.967787
-0.747825 0.107433 0.309778 -0.0215841 -0.0745466 0.971663
-0.920271 0.115558 0.551303 -0.0555925 -0.125475 0.964939
-0.187898 0.0545246 0.580326 0.0392327 0.0172031 0.674433
0.256628 0.00844194 0.592843 -0.0248779 -0.13263 0.965237
0.204298 -0.19866 -0.582588 0.00050891 -0.0381847 0.976166
-0.989826 0.136648 -0.491674 -0.00142391 -0.0865179 0.970651
-0.430214 0.00603296 -0.472555 0.00829105 -0.00129537 0.980419
0.949045 -0.214018 0.162569 0.0070892 -0.0549083 0.974206
-0.953181 0.0193457 0.504839 0.037748 -0.113334 0.967008
-0.236059 -0.0683668 -0.614442 0.0373412 -0.1328 0.964836
-0.949335 0.233527 -0.504174 0.0302587 -0.0770784 0.971088
0.4928 -0.171505 0.6254 0.036045 -0.0787053 0.970638
-0.634174 0.133626 -0.059733 0.029307 -0.0706628 0.971796
-0.925967 0.0276949 -0.497857 0.028961 -0.0601823 0.972894
0.545753 0.0719433 0.118783 0.265342 -0.356049 0.622699
0.599035 0.195412 -0.150006 0.0385678 -0.0363462 0.97451
-0.529811 -0.077335 0.464619 0.0823407 -0.0761596 0.967831
-0.912083 0.0270099 -0.0570629 0.574288 -0.41232 0.322256
0.655321 0.0886429 -0.129279 0.0549135 -0.0306877 0.973388
0.728833 -0.0831526 -0.525216 0.0488652 -0.0270077 0.974192
0.573962 -0.158473 0.574128 0.0834935 -0.0616539 0.968675
-0.96917 0.149614 0.48907 0.271963 -0.101915 0.797325
-0.775573 0.035208 -0.767416 -0.00819159 0.00942233 0.981773
0.170736 -0.0540027 0.597888 0.0190891 0.000697699 0.978514
0.732774 -0.0650812 0.47203 0.535915 -0.107695 0.506681
0.812799 -0.00243094 -0.727337 0.0665297 -0.00950617 0.972845
0.879585 -0.0680213 -0.540983 0.0413231 0.000421847 0.975839
-0.706774 -0.0772423 -0.615796 0.0690959 -0.0143708 0.972485
-0.0616884 -0.18462 -0.582284 -0.0194176 0.00970208 0.982843
-0.138429 -0.134315 0.594925 -0.0346802 0.0131462 0.945547
-0.743933 0.119853 0.612895 0.950611 -0.216212 -0.01517
-0.920101 0.13336 0.0237846 0.946422 -0.248571 0.00547796
0.625478 0.0104835 0.264328 0.936048 -0.253113 -0.0442679
0.903604 -0.13869 -0.49796 0.911823 -0.340708 -0.0576903
0.339165 -0.0849962 -0.624269 0.952864 -0.221429 0.00391038
0.0597499 -0.265751 0.628114 0.92677 -0.298518 -0.0335876
-0.518311 0.216307 -0.0217225 0.954356 -0.180362 -0.0428622
0.692446 0.0614283 0.0578449 0.948598 -0.236051 0.000477958
-0.950711 -0.0321303 -0.515748 0.931334 -0.283455 -0.029135
-0.998206 -0.0149142 -0.477464 0.933614 -0.277507 -0.0248103
0.814863 -0.13565 0.540302 0.956512 -0.193338 -0.013949
-0.766273 -0.22446 -0.572541 0.95143 -0.197815 -0.0353121
1.02055 -0.0398132 0.0736111 0.944889 -0.221409 -0.03901
1.10052 0.00729671 -0.155412 0.938601 -0.230727 -0.060405
0.183658 -0.130965 -0.590011 0.145859 -0.0512649 -0.875109
-0.970185 -0.0264427 -0.0276944 0.790716 -0.305086 -0.187458
0.116452 0.0645487 -0.600439 -0.0172308 -0.00508667 -0.985915
0.792063 0.102278 -0.0616144 0.796988 -0.558613 -0.0599516
-0.726684 0.0412031 -0.186915 0.830666 -0.497844 -0.0555011
-0.369215 -0.065549 0.611841 0.799911 -0.55562 -0.0535661
0.814271 0.0123453 -0.661057 0.852858 -0.465342 -0.0327315
0.913677 0.129892 0.544879 0.864062 -0.434465 -0.0592882
0.833124 -0.0154901 0.577184 0.815089 -0.52608 -0.0572219
0.694618 0.0216993 -0.410289 0.822653 -0.52331 -0.027608
-0.729336 0.10391 -0.0603352 0.872075 -0.437987 -0.0109404
0.0629452 -0.116579 0.628738 -0.0332729 0.00877873 -0.98796
-0.916505 -0.0193198 -0.27107 0.699307 -0.682801 -0.00255532
0.0612348 -0.19658 -0.594472 0.734207 -0.638179 -0.0282769
-0.712233 -0.108022 0.761276 0.735579 -0.638373 -0.0219602
0.930119 0.173211 -0.0142538 0.721581 -0.655495 -0.0145609
0.728161 -0.162057 0.406294 0.727262 -0.652868 -0.00131304
0.692577 0.0282991 -0.272611 0.669022 -0.701034 -0.0572799
0.879855 -0.200989 -0.216611 0.717961 -0.65442 -0.0333388
-0.00443438 -0.123406 -0.594222 0.685926 -0.682362 -0.0586795
1.00512 0.13113 -0.0666985 0.667803 -0.703878 -0.0515476
-0.876399 -0.208663 -0.529341 -0.0312266 0.0252179 -0.988645
-0.727885 0.264418 -0.755377 0.487685 -0.840865 -0.0361367
-0.982415 -0.0131289 -0.510629 0.542721 -0.799778 -0.0618619
-0.549193 -0.102087 -0.479947 0.600545 -0.762532 -0.0613127
-0.909459 0.242996 0.498108 0.518971 -0.829526 0.00519558
-0.444676 0.042929 0.362297 0.586398 -0.77309 -0.0547151
-0.806287 0.235009 -0.500726 0.540482 -0.812023 -0.011581
-0.660074 -0.0898482 0.601367 0.515667 -0.821745 -0.0409766
-0.952112 0.0131485 0.101232 0.565847 -0.792041 -0.0283041
0.720229 -0.191429 0.452862 0.480097 -0.844956 -0.0399178
1.00993 -0.236311 -0.245596 0.0150616 -0.0350766 -0.979785
-0.681207 0.0724785 -0.356118 0.00981543 -0.0256569 -0.981009
-0.700578 0.0766739 0.522009 -0.00126329 -0.00531912 -0.983634
-0.626253 -0.0994734 0.769447 -0.0179629 0.0120363 -0.986409
-0.923615 -0.274055 -0.525247 0.245433 -0.278955 -0.495606
0.705118 0.0320545 0.287182 0.291671 -0.921941 -0.0586878
-0.689982 0.0119733 0.443784 0.209353 -0.94906 -0.0606403
-0.187899 -0.185217 0.594895 0.310124 -0.917142 -0.051521
0.0717528 -0.199162 0.618747 0.230932 -0.946277 -0.037392
-0.277261 -0.286034 0.548262 0.36304 -0.903771 -0.0289136
0.818725 -0.00530549 -0.56944 0.311343 -0.923049 -0.0183315
-0.925178 0.00756406 -0.0551121 0.328116 -0.919636 -0.00682861
0.699099 -0.012622 -0.486675 0.222571 -0.945302 -0.0571934
-0.580159 -0.176465 0.443031 0.337204 -0.914312 -0.0188622
-0.541502 -0.0196615 0.440191 0.00272267 -0.0246399 -0.981305
0.973914 -0.172571 0.228789 0.018374 -0.970622 -0.0441452
-0.950153 0.1215 -0.566817 0.0307205 -0.974476 -0.0179964
-0.833778 0.19476 0.550704 -0.0132393 -0.974325 -0.0361129
0.41238 -0.0618597 -0.574065 -0.0335935 -0.971438 -0.0600642
0.625387 0.0209544 -0.337528 0.0698772 -0.965966 -0.049635
1.05088 -0.186627 0.201924 0.135589 -0.960705 -0.0528774
0.823839 -0.00269109 -0.586718 0.0683912 -0.970148 -0.0271034
0.348205 -0.227375 -0.623742 0.077141 -0.97257 -0.0102812
-0.538013 -0.249122 0.438727 0.0842409 -0.9644 -0.0526434
0.861403 0.112031 -0.485386 -0.00834595 -0.000625566 -0.984122
0.166163 -0.0629549 -0.617494 -0.011039 0.0337024 -0.988075
-0.178495 -0.115705 0.571765 -0.00606173 -0.00852408 -0.983177
0.894247 0.035436 -0.184224 -0.00326727 -0.0309125 -0.980576
-0.904031 0.0321263 0.560877 -0.175531 -0.956115 -0.0296727
0.773094 -0.019353 0.220335 -0.179453 -0.957187 -0.0199295
-0.562627 0.0615934 -0.275619 -0.0707399 -0.971151 -0.051834
0.816904 -0.195221 0.608215 -0.180221 -0.955985 -0.025721
0.691053 -0.214153 -0.496338 -0.194727 -0.954297 -0.0205064
-0.631947 0.0566041 0.385929 -0.235514 -0.940562 -0.0548539
-0.638722 0.0877236 -0.766566 -0.215277 -0.952925 -0.00756428
0.590015 -0.00888864 0.557566 -0.216412 -0.944928 -0.050036
0.897417 0.161438 0.602912 -0.188051 -0.953232 -0.0329467
-0.67575 -0.116357 0.743353 -0.140049 -0.958254 -0.0532693
-0.741607 0.0964346 -0.602789 0.00171766 0.041959 -0.988863
-0.959328 0.102527 -0.47752 -0.00459855 0.00130713 -0.98413
-0.919178 0.029762 -0.104085 -0.0173736 -0.133043 -0.777673
0.61436 0.115053 -0.196371 -0.37826 -0.900165 -0.00884972
-0.662384 0.0581462 0.410112 -0.386686 -0.893821 -0.0212444
-0.617161 0.170981 -0.00650591 -0.396791 -0.893891 0.00253418
-0.802156 0.0323687 0.594832 -0.432159 -0.865029 -0.060745
0.755491 -0.172596 0.227161 -0.387169 -0.886336 -0.0578047
-0.39745 -0.217241 -0.481518 -0.448094 -0.867293 -0.0124023
0.523566 0.0552719 -0.352524 -0.417469 -0.881641 -0.0111873
0.411969 0.0711493 -0.371068 -0.419012 -0.877555 -0.0281776
-0.248509 -0.182533 0.561723 -0.489098 -0.840138 -0.0540205
0.174639 0.00674993 -0.628185 -0.349914 -0.909252 -0.0288281
-0.70266 -0.00616655 -0.512863 -0.439005 -0.870576 -0.0169497
0.692966 -0.174073 0.540511 -0.220026 -0.361487 -0.608395
0.708394 0.0870811 -0.139511 -0.59704 -0.762359 -0.0515121
0.762195 0.0370589 0.194177 -0.584833 -0.770738 -0.0581858
-0.934968 0.147404 -0.552024 -0.573095 -0.780012 -0.0593712
-1.00161 0.0187165 -0.27889 -0.57284 -0.781811 -0.0525286
0.843076 -0.0143018 0.698043 -0.643359 -0.731877 -0.0205532
0.956611 -0.0443265 0.531642 -0.529937 -0.81592 -0.0559483
0.0727122 0.0683029 0.601976 -0.669154 -0.706065 -0.0412998
-0.857567 0.0903336 0.0629096 -0.562641 -0.792212 -0.0434859
0.765897 -0.168021 -0.261407 -0.518343 -0.824363 -0.0602025
-0.534607 -0.0533606 0.491521 -0.209681 -0.212402 -0.731835
-0.196682 -0.14616 -0.600341 0.000302478 0.00589454 -0.984607
-0.94324 -0.0209295 0.199601 0.00912894 0.0184031 -0.986373
-0.9404 0.0277158 0.293619 -0.745634 -0.621288 -0.0473159
0.902252 -0.133188 0.290325 -0.779779 -0.581998 -0.0245551
-0.957874 -0.0288683 -0.422511 -0.816743 -0.533785 -0.0186294
0.736174 -0.176574 0.247813 -0.805753 -0.54623 -0.0266163
0.804468 -0.141683 0.565141 -0.761046 -0.599401 -0.050721
-0.937715 0.0986093 -0.0155919 -0.752956 -0.619339 -0.021102
-0.620736 0.166245 0.0546214 -0.796159 -0.562871 -0.0145623
-0.709325 0.133667 -0.801116 0.0142358 0.0164435 -0.986512
-0.603658 -0.158292 0.423897 -0.889042 -0.40017 -0.0176995
0.471257 -0.180947 0.620687 -0.916791 -0.343077 0.00594021
0.875852 -0.00299311 -0.156023 -0.927598 -0.296278 -0.0359857
-0.50434 0.0906171 0.335571 -0.915943 -0.321808 -0.0426861
-0.849855 0.121409 -0.48306 -0.906269 -0.347177 -0.0395512
0.304237 0.0511248 -0.589968 -0.896737 -0.363173 -0.055196
-0.470254 -0.0915618 -0.547919 -0.891414 -0.38323 -0.0407787
0.342781 0.0624068 0.593514 -0.886494 -0.387227 -0.0577172
-0.698757 0.144968 0.773776 -0.860402 -0.454497 -0.0516689
0.958777 0.144086 -0.505356 -0.920214 -0.318729 -0.0271655
0.615051 -0.113319 0.54527 -0.916909 -0.31158 -0.0590156
-0.384571 -0.126816 0.497551 -0.906652 -0.358888 -0.0132076
0.708265 0.101943 0.102931 -0.914022 -0.32725 -0.0412222
0.763798 -0.00102689 -0.366952 -0.877878 -0.422445 -0.0286544
-0.526761 0.0778731 0.328595 -0.89686 -0.367492 -0.0455753
-0.599025 0.211555 0.0668531 -0.931042 -0.278628 -0.0550365
0.689218 0.0132408 -0.320511 -0.935665 -0.266098 -0.0573842
0.756635 0.0833603 0.0429661 -0.617645 -0.166342 -0.393679
0.813517 -0.00882086 -0.128547 -0.0254254 -0.00209885 -0.981322
-0.266559 -0.140953 -0.56569 -0.0158231 0.00189642 -0.982517
-0.668853 0.0202565 0.793824 -0.972703 -0.0763645 -0.0180346
0.974508 -0.0972616 -0.166948 -0.959439 -0.138672 -0.0448031
-0.0367618 -0.000690882 0.610709 -0.97059 -0.0581374 -0.0431203
-0.982183 0.0376815 -0.0478889 -0.952609 -0.201398 -0.035925
0.589754 -0.207479 0.599497 -0.96492 -0.150335 -0.00607395
-0.93349 0.0136453 0.539745 -0.973068 -0.0805745 -0.0129187
1.01627 -0.069551 0.239111 -0.947779 -0.208279 -0.0573586
0.00484705 -0.127599 -0.581303 -0.96314 -0.0941263 -0.0574222
0.953546 0.220253 0.0408456 0.0210463 0.00745095 -0.986585
0.61188 -0.018486 0.470987 -0.0180719 0.00480972 -0.982128
0.52641 0.0815884 0.48075 -0.0385045 0.00193829 -0.979758
0.801764 -0.216857 0.632227 -0.959125 0.15607 -0.0368264
1.06776 0.0883291 -0.0878853 -0.973404 0.0130086 -0.0511592
0.153473 -0.0071137 0.602335 -0.95865 0.131151 -0.0556262
-0.928536 -0.111749 -0.570635 -0.955535 0.163497 -0.0517643
0.520143 0.149046 0.20858 -0.971299 0.0591184 -0.0327923
0.942065 -0.227959 0.515372 -0.965885 0.0708886 -0.0549478
0.835051 -0.00215838 -0.175642 -0.969527 0.0428329 -0.0531236
-0.677623 0.198678 -0.482541 -0.973259 0.0076287 -0.0554475
1.05916 -0.0940529 0.205099 -0.9666 0.0913454 -0.0377218
0.880307 0.147901 0.539262 -0.386379 0.0911349 -0.6344
-0.858797 -0.0238817 -0.580295 -0.193771 0.0426125 -0.83155
-0.55625 0.126799 -0.173672 0.0312099 0.00226193 -0.987622
0.865392 -0.025551 -0.662553 -0.914172 0.320116 -0.0518131
-1.0426 0.104113 -0.00921967 -0.89461 0.389349 -0.0146136
0.000132717 -0.0177368 -0.560607 -0.899326 0.384322 -0.000273465
-0.834708 0.0497155 0.0775636 -0.88955 0.378758 -0.0619354
0.839005 0.129049 0.116091 -0.882553 0.406444 -0.0427864
-0.578983 -0.0942989 0.455347 -0.924303 0.302964 -0.0337099
-0.0557856 -0.1624 -0.589848 -0.783333 0.579256 -0.0184937
0.382435 -0.0160959 0.634643 -0.776054 0.578426 -0.0539985
-0.656511 0.0524736 0.258739 -0.811441 0.530682 -0.0481769
0.748971 -0.25233 0.313937 -0.804861 0.540226 -0.0471125
-0.0458473 -0.0422609 0.586843 -0.811985 0.529392 -0.0498779
0.524437 0.15995 -0.168246 -0.8248 0.511627 -0.049301
0.746696 -0.275321 0.447098 -0.778422 0.579523 -0.0397866
-0.574952 -0.100227 -0.519866 -0.833158 0.499705 -0.0500038
0.738128 -0.178079 -0.278844 -0.739647 0.633928 -0.0394377
-0.241677 -0.0763816 0.55119 -0.80516 0.550964 -0.0111759
0.393067 -0.149326 0.603273 -0.00122227 0.00600538 -0.983557
-0.440999 -0.0923422 0.514698 -0.621977 0.742412 -0.0494688
-0.722395 0.125997 0.641638 -0.589234 0.775298 -0.0267991
-0.715138 -0.0692007 0.607958 -0.625193 0.752263 0.0037804
-0.991672 -0.0275667 -0.0799071 -0.639791 0.729549 -0.0404751
0.617941 -0.181655 0.588024 -0.549696 0.801533 -0.0565766
-0.579823 0.0841445 -0.398643 0.00533477 0.00425771 -0.984125
-0.226207 -0.0717886 0.564645 -0.441539 0.871226 -0.00522333
-1.00387 0.0444991 -0.0813075 -0.381784 0.899059 -0.00963586
-0.699174 -0.205245 -0.661074 -0.409528 0.882699 -0.0247549
-0.922963 0.00839465 0.162081 -0.428742 0.869332 -0.0454006
-0.666636 0.103275 -0.221121 -0.470758 0.849368 -0.0442571
0.514766 0.0886599 -0.382939 -0.41232 0.883394 -0.0145835
0.819273 0.136714 -0.0570095 -0.352214 0.907172 -0.0400909
0.795451 -0.279756 0.269045 -0.478666 0.845536 -0.0444167
0.161491 0.0564299 0.622239 -0.431512 0.873186 -0.019499
-0.827757 -0.120052 -0.46121 -0.435389 0.868132 -0.0354359
-0.271645 -0.145391 -0.552774 -0.436781 0.872571 -0.00992238
-0.919033 0.0227521 -0.115491 -0.485122 0.843925 -0.0369645
-0.939203 0.0765248 0.0668173 -0.44508 0.863129 -0.0371614
0.655906 -0.0893904 0.577202 -0.000953509 0.01777 -0.98222
0.828424 -0.119892 -0.479912 0.00888727 -0.00726915 -0.985271
-0.652045 -0.121512 -0.586507 -0.113438 0.967342 -0.0365335
-0.931162 -0.00317332 0.609577 -0.167648 0.958362 -0.0266301
-0.568529 0.165682 -0.0363158 -0.24021 0.9412 -0.0413112
-0.867655 -0.0345802 -0.600442 -0.155968 0.961643 -0.0214482
-0.655266 0.0966277 0.349052 -0.199546 0.952268 -0.0252007
-0.508644 -0.226407 0.426957 -0.122716 0.96736 -0.0263891
0.655738 -0.124697 -0.567738 -0.261705 0.935129 -0.0510215
-0.623755 0.0743545 0.292037 -0.254268 0.936752 -0.0502553
-0.787475 0.101979 0.130283 -0.267323 0.934063 -0.0507274
0.936308 -0.0644376 0.425235 -0.216933 0.944586 -0.0481151
-0.977696 0.0378207 -0.134159 -0.149052 0.964216 -0.0149569
0.28541 -0.163112 0.588279 -0.000936685 0.0370279 -0.979911
-0.641444 0.00171026 -0.689704 0.0143005 -0.040533 -0.988977
0.135586 -0.0742498 0.611553 -0.116398 0.276169 -0.581338
-0.658837 -0.00600605 0.689474 0.109828 0.965412 -0.0414217
-0.732926 -0.218521 0.779179 0.149006 0.962327 -0.0466388
-0.446108 -0.0994518 0.657924 0.115318 0.967249 -0.0295979
-0.352882 0.0657574 -0.457777 -0.0185518 0.969304 -0.0587533
-0.719995 0.101687 -0.336913 0.0711242 0.967594 -0.0410672
-0.911414 0.205043 -0.552701 0.144602 0.960958 -0.055548
0.941769 -0.120592 0.276134 0.0491397 0.976002 -0.00118644
-1.10224 -0.0386343 0.0487536 0.0638424 0.968681 -0.0372551
0.736246 -0.197259 0.403045 0.0709522 0.968724 -0.0348659
0.286481 0.0102715 -0.621022 0.0831415 0.973084 -0.00704393
1.0205 -0.0535323 0.108148 0.0560397 0.978326 0.0137609
0.0507663 -0.0492262 0.582853 -0.000497784 0.971697 -0.0400419
-0.504962 0.24472 0.0771462 0.00507367 -0.00434092 -0.984551
0.424253 -0.133971 -0.592843 0.00189419 -0.0406339 -0.988711
0.0410661 -0.000441424 -0.601167 0.00729668 -0.0267536 -0.987152
0.896552 0.0994606 -0.485514 0.313023 0.916623 -0.0504468
0.885711 -0.249936 0.562576 0.299994 0.927164 -0.0165017
-0.607582 0.140541 0.103714 0.262005 0.938518 -0.0199223
-0.554344 -0.0780059 -0.461626 0.302063 0.928222 -0.00745453
0.921404 -0.0443779 0.481698 0.316527 0.921739 -0.0175624
0.934471 -0.154975 -0.478032 0.349966 0.909232 -0.0278255
-0.793807 -0.0370826 -0.456438 0.238601 0.943782 -0.0311821
-0.381771 -0.206839 0.44732 0.249766 0.937707 -0.0446394
0.522944 0.160448 0.158695 0.205124 0.948586 -0.0616831
-0.709144 0.0589795 -0.493921 0.212624 0.948675 -0.0486914
-0.765658 -0.000581189 -0.483303 0.246705 0.94074 -0.0337269
0.940426 0.0211349 0.434224 0.0471325 0.103888 -0.915767
-0.710374 0.0770857 -0.65855 0.00680726 0.00358445 -0.983461
0.855757 -0.0725905 0.455837 0.00388522 -0.0173763 -0.985901
-0.789896 -0.194507 0.545791 -0.00236224 -0.0312175 -0.987606
0.864964 0.0304678 -0.654415 -0.00194011 -0.0388093 -0.988458
1.07935 -0.112948 -0.17756 0.492088 0.840878 -0.0196069
-0.127 -0.00210546 0.572734 0.530869 0.815587 -0.024881
0.178027 -0.00708363 0.563912 0.488977 0.838172 -0.0414454
0.952492 0.00472811 0.363188 0.483393 0.840805 -0.0454321
0.675729 0.00196423 -0.419477 0.448675 0.860763 -0.0533283
1.06101 0.0731112 0.00307462 0.584585 0.777662 -0.0457861
0.581949 0.123787 0.198108 0.434824 0.869528 -0.0527045
-0.81684 0.0885854 0.231344 0.524796 0.812121 -0.0589675
0.936173 -0.167278 -0.168491 0.541757 0.813745 -0.00163758
0.586766 -0.211641 0.56081 0.549314 0.796433 -0.0608848
-0.784561 -0.0220782 -0.425783 0.49226 0.83218 -0.0599941
-0.825111 0.239547 -0.444292 0.482039 0.842698 -0.040497
-0.57815 -0.102003 -0.517342 0.537885 0.808455 -0.0378527
-0.764532 -0.178667 0.415955 0.00416305 -0.00051222 -0.983864
1.05521 0.0470194 -0.0613765 0.00274849 -0.013471 -0.985287
-0.528378 0.0888602 0.310759 0.740427 0.628941 -0.0420849
-0.710197 0.117297 -0.485076 0.754984 0.613129 -0.0442426
-0.188405 0.0624673 -0.529639 0.727727 0.645488 -0.0296742
-0.775958 -0.0757134 -0.453107 0.735737 0.630175 -0.0561617
0.989972 0.0453629 -0.428628 0.765905 0.599714 -0.0518015
-0.826115 -0.0383368 0.512062 0.774844 0.58897 -0.0570836
0.474155 -0.242446 -0.604074 0.717222 0.665157 0.00348847
-0.720349 0.144519 0.833023 0.679584 0.693055 -0.040626
1.08932 0.0316955 -0.180893 0.702217 0.668158 -0.0451758
-0.495157 -0.0182637 0.450851 0.659268 0.717899 -0.0269913
0.615076 0.0037618 0.513777 0.666208 0.71021 -0.028595
-0.820038 -0.0847343 0.700502 0.710947 0.655698 -0.0578642
0.99349 -0.0182319 -0.496762 0.745716 0.619753 -0.0560443
0.901786 -0.269048 0.495459 -0.00761828 -0.010364 -0.985492
-0.422973 0.0578325 -0.459335 0.825549 0.505735 -0.0556417
1.05351 0.0300668 -0.0721782 0.873236 0.433945 -0.0196021
0.92904 -0.0144553 0.112758 0.886007 0.400915 -0.0473833
-0.894281 0.0290018 0.581888 0.897851 0.376786 -0.0555147
0.615447 -0.174317 -0.579208 0.835602 0.491652 -0.0451934
0.7027 0.148423 -0.147312 0.876369 0.427153 -0.0228632
-0.182993 0.00671487 0.549569 0.828659 0.508603 -0.0328172
-0.594649 0.0943351 0.367414 0.860153 0.44225 -0.0603771
-0.415937 -0.0890066 -0.588576 0.874423 0.434915 -0.0112304
0.544875 0.0675947 -0.464427 0.894984 0.380368 -0.0596716
0.651592 -0.030105 -0.342005 0.889544 0.394516 -0.0476236
0.91382 -0.091124 -0.43512 0.869885 0.436127 -0.0298972
1.09218 0.00765407 -0.0554932 0.846949 0.489026 0.0025824
0.906783 0.116707 -0.13449 0.845875 0.469455 -0.0556845
0.133114 -0.129463 0.611506 -0.0290415 -0.021056 -0.988156
-0.671437 0.00400498 0.784091 0.00396531 -0.00491323 -0.983974
-0.733881 0.0765938 -0.49098 0.90999 0.342903 -0.0550957
-0.975792 -0.0142518 -0.476889 0.948983 0.242275 0.0107286
-0.799416 -0.110181 -0.399833 0.93171 0.279971 -0.0282157
0.194363 -0.137459 0.630603 0.950232 0.24229 0.0174413
0.609465 -0.0109049 0.567133 0.937019 0.270651 -0.0130223
0.404904 0.0777409 0.455226 0.946489 0.223094 -0.0299226
-0.75012 0.196006 0.773696 0.938455 0.245118 -0.0416488
-0.868922 0.0756796 0.252487 0.9582 0.161417 -0.0549039
-0.939336 -0.217823 0.490754 0.937979 0.254408 -0.0309858
-0.700462 0.0278538 0.811021 0.943814 0.234118 -0.0285753
0.871208 -0.191691 -0.172569 0.0916774 0.0157563 -0.936414
0.525579 0.0806939 -0.282326 -0.0370854 -0.0108268 -0.988459
0.563321 -0.0176425 -0.29678 0.129536 0.0558311 -0.768808
0.812294 0.00834823 0.560402 0.969542 -0.00025775 -0.0440094
-0.780119 -0.215984 0.549229 0.967701 -0.022223 -0.0552013
0.772082 0.0447974 -0.144268 0.971796 0.0180399 -0.0307007
0.769654 0.192068 -0.0418721 0.979577 0.00321801 0.0117296
0.35757 -0.013956 0.622804 0.970833 -0.0409927 -0.0387078
1.10165 0.0302165 -0.0554201 0.976711 -4.09628e-05 -0.00429349
0.872924 -0.055004 -0.169822 0.971475 -0.054528 -0.0357594
0.490941 0.070723 0.536107 0.96696 0.0703527 -0.0551176
-0.993074 -0.0769831 -0.494037 0.973625 -0.057208 -0.0239725
0.902349 -0.0140405 0.509496 0.977161 -0.0189529 -0.00265759
0.831683 0.195647 -0.0567031 0.97023 -0.0343654 -0.0417449
0.731398 -0.15079 0.400153 -0.0100818 -0.008168 -0.985288
-0.830357 -0.130941 0.471556 -0.0257836 -0.00647951 -0.987063
0.244786 -0.141812 0.622128 0.723403 0.402665 -0.549257
0.578027 0.0549748 -0.356654 0.316209 0.188808 -0.90897
-0.240686 -0.0566188 -0.556707 -0.93564 -0.0446351 -0.0446351
-0.506302 0.0706211 0.437054 -0.872516 -0.0884129 -0.0884129
-0.954727 -0.0161467 -0.448682 -0.9181 -0.0567997 -0.0567997
-0.446375 0.0362488 -0.342776 -0.899568 -0.091004 -0.0376939
-0.654192 0.00686148 -0.701358 -0.848171 -0.137576 -0.056984
-0.528939 -0.0698896 0.456156 -0.927497 -0.0656966 -0.0272116
0.441694 0.0440219 0.360747 -0.717126 -0.256319 -0.106168
-0.501844 -0.218859 0.428856 -0.984061 -0.0144429 -0.00598224
0.544308 0.0595652 -0.450677 -0.819925 -0.163171 -0.0675854
0.00128707 -0.136466 0.624928 -0.934113 -0.0597017 -0.0247284
0.126629 -0.192139 0.592692 -0.752239 -0.224503 -0.092989
-0.897342 0.11367 0.166221 -0.404686 -0.53943 -0.223432
-0.690141 -0.0212858 0.828528 -0.500964 -0.45219 -0.187297
0.725314 0.0647684 0.111307 -0.423755 -0.227454 0
-0.786101 0.0992674 -0.316532 -0.147519 -0.0271717 0
1.05943 0.126798 0.00872756 0.359071 -0.28647 0
-0.710582 0.0576081 -0.43388 -0.420721 -0.201061 0
0.726515 -0.215595 -0.390863 0.363684 -0.60649 0
0.663063 -0.0690484 -0.568191 -0.587706 -0.109407 0
-0.412223 0.0609356 0.460898 -0.196349 -0.191531 0
-0.740464 0.236471 0.567254 0.145074 -0.401756 0
-0.889486 -0.190273 0.522161 -0.0480695 -0.443616 0
0.582682 -0.189453 0.619586 0.405825 -0.0692708 0
-0.832609 -0.16625 -0.514177 0.54551 -0.336077 0
0.676175 0.0269024 -0.442035 0.134412 -0.138229 0
0.188245 -0.00169929 -0.57122 -0.135338 -0.394351 0
-0.753961 0.219643 -0.748766 0.244083 -0.045386 0
0.142211 -0.259542 -0.610923 0.447214 0 0.894427
0.559342 0.125843 -0.182618 0.447214 0 0.894427
-0.519064 0.205891 -0.0189839 0.447214 0 0.894427
-1.04226 -0.020653 -0.0047887 0.447214 0 0.894427
-0.927739 0.0954341 -0.489591 0.447214 0 0.894427
-0.693206 0.160425 0.530203 0.257682 0 0.96623
0.733544 -0.184664 0.516631 0.257682 0 0.96623
0.66374 -0.0214649 0.3315 0.257682 0 0.96623
0.260287 -0.122622 0.593892 0.257682 0 0.96623
0.876299 0.217825 -0.10173 0.257682 0 0.96623
-0.844167 0.191563 -0.530094 0.578148 0.359247 0.0539888
0.491089 -0.0673578 0.628702 0.60786 0.231186 -0.0193418
0.589249 -0.196258 0.609004 0.710976 0.213465 0.0675358
-0.806948 0.0392252 -0.408813 0.49101 0.374797 -0.0189668
-0.117138 -0.122475 0.608559 0.455441 0.464861 0.0182266
0.681504 0.00129743 0.344543 0.12697 0.85217 0.00616887
0.585242 0.0893371 -0.234824 0.530426 0.348921 -0.0010396
-0.748681 0.0405434 0.159453 0.67496 0.125777 -0.0379105
0.594423 -0.0133697 -0.554723 0.781662 -0.0518098 -0.0754114
0.0825457 -0.000963978 -0.596588 0.832985 0.0762398 0.0773255
-0.947481 -0.00399789 -0.285694 0.505643 0.381289 0.000566884
0.320399 0.0541161 0.554353 0.12041 0.856177 0.00294576
-0.898339 0.135431 0.172586 0.791583 -0.00385475 -0.0273248
-0.936534 0.219808 0.526933 0.596373 0.21494 -0.0435963
-0.978901 0.157454 -0.497661 0.763211 0.152915 0.0702868
0.785439 -0.151344 -0.269954 0.424978 0.437823 -0.0332588
-0.827574 -0.0919392 0.699902 0.360518 0.569977 0.00929361
0.912993 -0.101563 -0.300426 0.270551 0.691265 0.0181561
-0.792419 -0.0241812 0.517158 -0.33039 0.356212 -0.162116
-0.982568 0.0112535 -0.395439 -0.0464178 -0.134121 -0.247902
0.76972 0.0536505 0.102021 -0.404824 0.243006 -0.0590489
-0.71261 0.128693 0.557624 -0.138439 -0.228648 -0.135625
-0.280163 -0.282538 0.518613 0.173092 0.488445 0.00428881
-0.559189 -0.0892149 -0.601869 0.385389 0.486797 -0.0499459
-0.975068 0.00357732 0.364653 -0.287534 0.498765 -0.2411
-0.546239 -0.0978018 0.494366 0.338842 0.487645 -0.0642396
-0.991569 -0.0124332 0.419184 -0.210102 0.49395 -0.0340394
-0.177532 0.0580441 -0.556232 -0.0331231 0.498577 -0.402229
0.695349 0.0211731 0.523567 0.387047 0.485744 0.00559987
0.966911 0.00618473 0.356286 0.101134 0.492074 -0.142589
-0.187509 -0.122477 -0.560502 -0.0196406 -0.793912 0.183838
-0.667927 0.0915433 0.446317 -0.172324 -0.685845 0.118949
0.0670746 -0.119964 0.61732 -0.100465 -0.695475 0.19072
-0.697228 -0.0854764 0.650265 0.663818 0.228905 0.180794
0.552814 0.137505 -0.0462194 0.671411 0.259542 0.143405
0.541538 0.135151 0.197367 0.687686 0.26487 0.123605
0.888841 -0.0141682 0.528294 0.25536 0.676861 -0.10406
-0.4228 -0.0725888 0.511241 0.540338 0.441276 -0.0951559
0.0637917 -0.202596 -0.598342 -0.255136 -0.302453 -0.403374
-0.769085 0.0941048 0.301597 -0.185246 -0.220859 -0.565551
-0.679556 -0.0070855 0.758051 -0.20188 -0.259192 -0.508039
0.954929 -0.138756 0.504201 -0.518637 0.371731 0.109372
-0.669415 0.09718 -0.156719 -0.443254 -0.411811 0.0849114
-0.726772 0.24349 -0.746658 -0.559325 -0.0427832 0.198689
0.747309 -0.077726 0.325696 -0.531777 0.103191 0.150458
-0.343392 0.050134 0.444468 -0.47151 0.420657 0.111472
-0.839437 0.0973233 -0.422198 0.611634 0.351436 0.104668
-0.98579 0.0229982 -0.229183 0.546557 0.431983 0.0819906
1.04135 -0.130825 -0.0829312 -0.364429 -0.624629 -0.037447
-0.812049 0.0087578 -0.713253 -0.0403738 -0.524185 0.43008
0.91991 0.0108573 -0.089095 -0.00819323 -0.705779 0.28494
-0.885282 0.0298059 -0.616447 0.0234885 0.494271 -0.208334
-0.315565 -0.0691599 0.534104 -0.249195 0.496955 -0.169294
-0.437893 -0.103612 -0.606641 -0.0272564 0.492726 -0.0910263
0.716681 0.0467803 -0.058235 -0.101264 0.495393 -0.18476
0.520754 0.0440752 0.318893 0.0668553 0.4924 -0.136818
0.672897 0.169796 -0.164103 0.461061 0.484516 0.0221938
-0.713547 -0.0857985 -0.492564 0.0406442 0.49225 -0.111095
0.717921 -0.0157018 -0.31981 -0.0121137 -0.750664 -0.0724836
0.567077 0.0545794 0.31282 -0.472414 0.24506 0.1821
0.867173 -0.0176404 0.13235 -0.656027 0.175263 0.238893
-0.574712 0.0755264 -0.165322 0.410861 0.499479 -0.0528009
-0.930704 0.0452905 -0.383912 -0.347912 0.480171 0.055154
0.0748508 0.0730972 0.59227 -0.304238 0.32469 0.122686
-0.483993 -0.0797525 0.58179 0.0275384 0.43895 0.0256487
-0.784967 -0.237388 0.53074 -0.326945 0.35471 0.111507
-0.864847 -0.219066 0.556599 0.0435934 0.445739 0.0203596
0.441414 0.0577198 -0.535114 -0.531208 0.343779 0.105761
