1.04893 -0.0253043 -0.429551 0.0528914 -0.997672 0
0.963568 -0.146489 -0.67676 0.0571791 -0.997352 0
-0.0263599 -0.0515528 0.540549 0.0494655 -0.997927 0
0.747202 -0.188461 0.417579 0.0452251 -0.998244 0
-0.778497 -0.0442762 -0.471949 0.0433486 -0.998384 0
-0.989712 -0.280886 0.664927 0.0635428 -0.996878 0
1.28905 -0.197636 -0.34861 0.059391 -0.997187 0
1.49907 -0.144678 -0.0349463 0.0316735 -0.999255 0
1.32218 -0.236573 -0.14561 0.0475639 -0.998069 0
0.140548 -0.0575046 0.513092 0.110957 -0.993565 -8.31783e-07
1.08223 -0.0125394 0.138414 0.101097 -0.99424 -5.67386e-07
-1.13087 0.186149 -0.520536 0.0872708 -0.995203 -4.41323e-08
-0.945441 0.149319 -0.451225 0.102581 -0.99412 -7.8318e-07
-1.29441 0.300196 0.237433 0.101443 -0.994201 -7.25644e-07
-0.739999 0.0325864 -0.381259 0.112567 -0.993481 -6.13299e-07
1.37435 -0.104211 -0.0325867 0.115289 -0.99324 -1.21741e-06
-0.546032 0.174453 -0.101869 0.113602 -0.99337 -1.03435e-06
0.980599 -0.158678 0.541442 0.114786 -0.993262 -1.32486e-06
-1.0902 0.191205 -0.4653 0.105685 -0.993931 -6.38384e-07
0.450654 0.0285674 -0.487094 0.105834 -0.993884 -1.00178e-06
-0.933642 0.14911 0.766856 0.0895415 -0.995005 -5.18352e-07
-1.01259 0.086598 0.676043 0.107697 -0.993738 -1.22895e-06
-0.287208 0.0627936 -0.229399 0.113016 -0.993375 -1.36122e-06
-0.313677 -0.119152 -0.616068 0.107055 -0.994123 -4.55019e-07
1.06546 -0.0130243 -0.504569 0.0995803 -0.994922 -1.46902e-06
-1.13495 0.190223 -0.654317 0.0904825 -0.995894 -8.6226e-07
0.666819 -0.0106369 0.349504 0.0920572 -0.995726 -3.65221e-06
1.1867 -0.240597 0.181627 0.0910185 -0.995837 -1.90648e-06
0.184553 0.22786 -0.0854567 0.107559 -0.994069 -5.95815e-07
0.484712 0.100837 -0.178754 0.0908523 -0.995854 -3.61348e-06
-0.131071 -0.0184137 0.367705 0.0608416 0.997078 0
-1.31177 0.110165 0.0184385 0.0663396 0.996668 0
-0.207522 0.0039547 0.32759 0.0525583 0.997696 0
0.888913 -0.116975 0.724695 0.0654702 0.996733 0
-0.374112 0.113157 -0.231051 0.0620807 0.996985 0
-0.723282 0.0456044 -0.444526 0.0472718 0.99809 0
1.0375 0.125423 0.719613 0.0536881 0.997611 0
1.32658 -0.197348 -0.170806 0.0528206 0.997676 0
0.93741 -0.00126346 0.438072 0.0460994 0.998177 0
0.82072 0.159367 0.105896 0.0534253 0.997631 0
-1.30221 0.264627 0.294184 0.0567951 0.99738 0
0.292816 0.224341 0.0533143 0.0550677 0.997508 0
-1.0752 -0.0375566 0.48628 0.0575029 0.997327 0
0.511676 -0.0457177 0.624015 0.069218 0.996453 0
-0.547714 -0.0934336 -0.527355 0.0579751 0.997292 0
0.491678 -0.0437916 -0.58188 0.109541 0.993736 0
0.749002 -0.159338 -0.282634 0.0874534 0.995151 0
-0.966946 0.261245 -0.63304 0.0819301 0.995538 0
1.18215 0.0175764 -0.531067 0.113139 0.993372 0
-1.4393 0.344054 -0.376269 0.103588 0.994073 0
0.164765 -0.166509 0.603919 0.095015 0.994635 0
0.374661 -0.120277 0.617837 0.0964683 0.994539 0
-0.91969 -0.0693734 -0.18841 0.0943061 0.994691 0
-0.449852 0.212299 -0.108309 0.107497 0.993767 0
0.822905 -0.102445 -0.512816 0.0969875 0.994543 0
0.457018 -0.168583 0.636303 0.09034 0.994982 0
1.43197 -0.221468 -0.212539 0.106751 0.993831 0
0.197152 -0.0570791 -0.521272 0.111745 0.993566 0
-1.1394 -0.112875 0.658646 0.111883 0.993506 0
-1.17533 -0.086331 0.665463 0.112638 0.993436 0
1.05312 -0.0247667 0.48176 0.113454 0.993373 0
0.0385059 -0.0400667 0.608727 0.0967977 0.994495 0
0.422118 0.252757 0.077832 0.100884 0.994237 0
0.0752235 0.250361 0.0786659 0.109235 0.993754 0
-1.42615 0.265849 0.185054 0.0840265 0.995409 0
-0.68255 0.0306892 -0.368992 0.10079 0.994232 0
1.15555 -0.252338 -0.18974 0.103078 0.994056 0
-0.843727 -0.0361504 -0.56564 0.109911 0.99363 0
0.29138 0.0482306 -0.403701 0.0885041 0.995082 0
1.46866 -0.232045 -0.0759482 0.0904391 0.994954 0
0.71924 -0.0302717 0.267268 0.0956296 0.995344 0
0.491479 0.0479544 -0.607049 0.106514 0.994181 0
0.960305 -0.117844 0.52072 0.0947783 0.995435 0
-0.424183 -0.12848 -0.591346 0.106996 0.994129 0
1.51266 -0.208343 0.393982 0.092887 0.995637 0
0.751413 -0.0646347 0.500345 0.0932262 0.995601 0
1.15472 -0.178635 -0.541225 0.0934233 0.99558 0
1.27227 -0.0506147 0.076991 0.0930076 0.995624 0
0.212168 0.105893 -0.223683 0.104193 0.994429 0
1.10254 -0.234812 -0.174255 0.104814 0.994362 0
1.01561 0.0163865 -0.649541 0.0961892 0.995284 0
-0.693522 -0.16842 -0.762351 0.0972112 0.995175 0
1.48828 -0.254623 -0.0812533 0.101621 0.994704 0
0.768721 0.094708 -0.0208683 0.104176 0.994431 0
1.41828 -0.229034 0.169204 0.102964 0.99456 0
-0.964714 -0.00254523 -0.401558 0.0914708 0.995788 0
0.000333519 0.0217095 0.592608 0.0927368 0.995653 0
-1.17542 0.151102 0.62155 0.102073 0.994655 0
1.0387 -0.0185503 -0.576022 0.0809154 0.995654 0
0.647704 0.130405 -0.16973 0.0863818 0.995298 0
-0.288796 0.0246185 -0.432866 0.0957898 0.99463 0
0.189837 0.133127 -0.192074 0.06599 0.996727 0
0.894218 -0.123787 -0.478504 0.10392 0.994019 0
-1.05644 -0.0435492 -0.556358 0.10983 0.993607 0
1.17274 -0.0549864 0.489079 0.10276 0.994158 0
-1.38757 0.291862 -0.245043 0.0936724 0.994752 0
-0.0620239 0.000163327 0.611683 0.0713988 0.996348 0
1.49196 -0.246583 -0.0113253 0.114765 0.99326 0
1.34645 -0.245573 0.533331 0.093883 0.994783 0
-1.00871 -0.249816 0.677897 0.0880257 0.995155 0
0.236474 0.247324 0.0989711 0.07418 0.996155 0
-0.634831 0.146464 -0.099048 0.0833536 0.995486 0
-0.31824 -0.0998491 0.583521 0.089608 0.995109 0
-0.42851 -0.110673 0.552637 0.107147 0.99381 0
0.459609 -0.170617 0.600789 0.0836128 0.995514 0
-0.893095 -0.0141234 0.497771 0.105984 0.993982 0
0.669398 0.186296 0.146296 0.107539 0.99379 0
0.175691 0.0284785 -0.590035 0.102111 0.994168 0
1.4223 -0.207116 -0.196369 0.0843987 0.995432 0
1.16495 -0.174661 -0.104147 0.062128 0.996982 1.18076e-07
-0.293091 0.131409 -0.193519 0.0565093 0.997401 9.59626e-07
1.36497 -0.211523 -0.20971 0.0348985 0.999013 3.36135e-06
-0.0647957 0.0406701 -0.272158 0.0603784 0.997113 4.35565e-07
-1.14094 -0.0214905 0.013744 0.0608802 0.997075 3.86602e-07
1.03931 -0.284326 -0.671507 0.0530296 0.997661 1.98341e-06
1.35503 -0.225472 -0.521465 0.0635684 0.996875 1.16134e-07
1.32013 -0.231653 0.481558 0.0618487 0.997003 1.58644e-07
0.717489 0.00325746 -0.310168 0.0677947 0.996559 3.70182e-08
0.537916 0.0907393 0.11009 0.0599181 0.997147 3.21641e-07
-1.47913 0.27101 -0.0129751 0.072445 0.996213 2.65971e-07
1.02279 0.024443 0.486048 0.0650225 0.996766 5.47132e-07
0.971066 0.126261 -0.621787 0.0995833 -0.994921 -7.45859e-07
-1.44247 0.321055 0.254977 0.102077 -0.994654 -7.48539e-07
-1.20105 -0.0699499 -0.500786 0.101493 -0.994717 -7.47912e-07
0.562554 0.115396 0.194386 0.102414 -0.994619 -7.48901e-07
1.08497 0.00652758 0.542349 0.093933 -0.995525 -7.39788e-07
1.04026 0.0407892 0.489957 0.103942 -0.994455 -7.50542e-07
-1.08953 0.195271 -0.474963 0.0959672 -0.994632 -7.80655e-07
0.424117 0.221124 0.109885 0.103243 -0.994163 -7.69174e-07
-0.271853 0.0365776 0.477644 0.107204 -0.993895 -7.74921e-07
1.10464 -0.232291 -0.682084 0.107502 -0.99388 -7.70244e-07
1.14989 -0.190557 0.635265 0.105018 -0.994045 -7.69761e-07
1.16965 -0.145381 -0.135615 0.109176 -0.993766 -7.73389e-07
0.642769 0.00540291 -0.486411 0.0984344 -0.994474 -7.75817e-07
-0.365634 0.212516 0.155561 0.105142 -0.994035 -7.71179e-07
0.061143 0.128226 0.1896 0.0857943 -0.995294 -7.90004e-07
0.918665 -0.222208 -0.208347 0.0900253 -0.995018 -7.8715e-07
0.600219 -0.218845 0.568373 0.0931319 -0.994819 -7.81401e-07
-0.701034 0.0857866 -0.606316 0.111076 -0.993651 -7.63619e-07
-1.20071 0.0420827 -0.513985 0.100655 -0.994323 -7.79543e-07
0.442348 0.0595353 -0.0623095 0.0889786 -0.995089 -7.85752e-07
0.200995 0.0999782 -0.196124 0.0903309 -0.994998 -7.86346e-07
-0.583673 0.107986 -0.177963 0.109172 -0.993772 -7.68047e-07
-0.440066 -0.0983183 -0.466605 0.0986279 -0.994459 -7.7799e-07
0.713444 -0.248746 -0.479171 0.0503268 -0.997862 -8.41694e-07
-0.977127 -0.126434 0.843623 0.049733 -0.997907 -8.40094e-07
-0.839986 0.252334 0.820522 0.0403667 -0.998605 -8.4862e-07
-1.31765 0.279844 0.253284 0.0426116 -0.998438 -8.46216e-07
-0.961052 -0.0296953 -0.10115 0.0446854 -0.998283 -8.38643e-07
0.79025 0.0678843 0.162414 0.0522865 -0.997716 -8.35759e-07
0.202163 -0.0585129 0.440296 0.0675463 -0.996578 -8.11049e-07
0.216793 0.307083 0.00357872 0.0705043 -0.996358 -8.09117e-07
1.39325 -0.226925 0.339149 0.0719722 -0.996248 -8.19557e-07
-1.05598 0.201969 -0.784317 0.0751151 -0.996014 -8.0534e-07
-0.151711 0.130095 0.184349 0.0743746 -0.996069 -8.17513e-07
-0.928583 -0.0689017 0.207948 0.0712362 -0.996303 -8.17066e-07
0.640084 -0.0504248 0.566242 0.0712942 0.996299 8.05437e-07
-0.0293544 -0.21964 0.605966 0.0552383 0.997496 8.35472e-07
-0.913707 0.0484189 0.287168 0.0711039 0.996313 8.24229e-07
-1.10978 0.0458378 0.495562 0.0739897 0.996098 8.02083e-07
-1.1565 0.135606 0.746723 0.0362985 0.998909 8.47843e-07
-1.42701 0.292751 0.209493 0.063382 0.996889 8.26739e-07
0.468437 0.065189 0.239591 0.0632395 0.996899 8.21735e-07
-0.0778102 0.133821 -0.183402 0.0682367 0.996527 8.19543e-07
-0.717634 0.182827 -0.746129 0.0660786 0.996688 8.21359e-07
0.928625 0.00853148 -0.765695 0.0534809 0.997627 8.28543e-07
1.10473 0.046793 0.0372721 0.0492551 0.997942 8.42429e-07
1.04973 -0.0766508 -0.555637 0.0647904 0.996784 8.32215e-07
1.03684 0.0461947 0.484533 0.0544572 0.997554 8.3122e-07
-0.552372 -0.0791718 0.54508 0.0701821 0.996382 8.14382e-07
0.789764 0.0862968 0.0727732 0.0446768 0.998284 8.42431e-07
1.52479 -0.206897 0.260309 0.0512199 0.997796 8.3387e-07
0.735475 -0.265708 -0.283549 0.0421742 0.998471 8.39715e-07
1.08773 0.146174 -0.508385 0.0504274 0.997855 8.34873e-07
0.617134 0.0246849 -0.345384 0.0619598 0.996995 8.20565e-07
0.822974 -0.0188313 -0.776729 0.0547409 0.997533 8.25643e-07
0.949961 -0.185364 -0.4944 0.104102 0.994099 7.75525e-07
-0.19044 0.170116 0.148367 0.101035 0.994303 7.75154e-07
-1.38816 0.270928 0.374961 0.104587 0.994076 7.67837e-07
-1.0322 -0.196892 -0.809713 0.109204 0.99377 7.68027e-07
0.832542 0.0642911 0.785442 0.110324 0.993702 7.63138e-07
0.930528 -0.122186 -0.674164 0.0952652 0.994679 7.80044e-07
-0.228343 0.259603 -0.0700298 0.0973848 0.994539 7.79619e-07
0.94552 0.0302089 -0.0985226 0.101805 0.994257 7.70646e-07
-0.424326 -0.00030124 0.456127 0.0972205 0.994548 7.8108e-07
0.319662 0.145201 0.032365 0.104187 0.994099 7.70533e-07
-1.33268 0.287191 -0.0401033 0.100124 0.99436 7.7744e-07
0.329378 -0.195491 0.609828 0.100587 0.994328 7.78494e-07
-0.228413 0.1862 -0.143433 0.0984652 0.994472 7.76129e-07
-0.48222 -0.19646 0.466972 0.091663 0.994913 7.83876e-07
1.08955 -0.24981 -0.621752 0.097105 0.994555 7.82056e-07
1.02766 0.15442 -0.00353936 0.104909 0.994049 7.72888e-07
-0.532472 0.140255 -0.130949 0.0982403 0.994485 7.77898e-07
-0.392075 -0.108995 0.531168 0.110234 0.993709 7.62311e-07
0.233555 0.242309 -0.118694 0.101093 0.994295 7.78083e-07
-0.617946 -0.0818197 -0.450841 0.102316 0.994221 7.72576e-07
0.931506 0.00479637 0.155973 0.109693 0.993744 7.62591e-07
0.576296 -0.0905041 -0.587177 0.0949066 0.995421 7.40834e-07
0.662859 -0.108399 -0.544053 0.0985536 0.995031 7.44753e-07
-0.904837 -0.151665 0.486929 0.0937808 0.995541 7.39625e-07
-1.0346 0.0577587 -0.584597 0.0946715 0.995446 7.40582e-07
0.258099 0.13433 0.0224864 0.0946453 0.995449 7.40553e-07
-0.873194 0.104779 -0.737859 0.0960719 0.995296 7.42086e-07
1.16999 -0.0985607 0.733655 0.0953005 0.995379 7.41258e-07
-0.302848 0.229711 -0.0980286 0 0 1
0.770633 -0.0604513 0.355158 0 0 1
0.708059 -0.00250108 0.250454 0 0 1
0.890346 0.102877 0.115745 0 0 1
0.21435 -0.0552894 0.418618 0 0 1
0.21919 -0.0247792 0.533196 0 0 1
-0.859327 -0.104708 0.748149 0 0 1
1.36631 -0.114816 -0.0698137 0 0 1
1.35165 -0.236239 0.527796 0 0 1
1.09226 0.114096 -0.5705 0 0 1
-0.917593 -0.00504019 0.309719 0 0 1
0.957671 0.0875162 -0.0746653 0 0 1
-1.09274 0.202922 -0.705951 0 0 1
-0.478097 -0.125147 0.513155 0 0 1
1.00276 -0.0814461 0.52787 0 0 1
1.09976 0.111201 -0.654141 0 0 1
1.44098 -0.251424 -0.41065 0 0 1
1.01591 0.00957986 -0.523467 0 0 1
1.08199 -0.00507909 0.445564 0 0 1
-0.668025 -0.0904772 0.685019 0 0 1
0.911317 0.155526 0.0333128 0 0 1
0.209912 0.036387 0.612859 0 0 1
1.49136 -0.147406 0.0111538 0 0 1
0.163874 -0.0547011 0.563087 0 0 1
0.877418 0.0470178 -0.75269 0.351079 0.229449 0.879315
0.0264631 -0.0256211 0.573325 0.533779 0.312346 0.759666
1.02359 -0.118735 0.660521 0.742095 0.401847 0.515371
-0.912333 -0.28609 0.520437 0.805611 0.434028 0.372654
0.802554 -0.0486038 0.600607 0.77208 0.414628 0.460646
-0.569633 -0.0821414 -0.437624 0.0323807 0.0125776 0.980177
-0.919637 -0.258018 -0.801267 0.0286286 0.00845806 0.980715
1.0837 0.0102013 0.374007 0.959972 0.16626 -0.00114688
-0.95197 -0.0577868 0.316034 0.967531 0.109132 0.0270108
1.28481 -0.220994 -0.389045 0.96515 0.127902 0.0286437
-0.0162312 -0.0466585 -0.365376 0.966438 0.1174 0.0230609
0.921981 0.120734 0.58051 0.957385 0.185655 -0.0129817
0.0410975 0.0785623 -0.239166 0.961799 0.152163 0.00173682
-0.928743 0.076676 -0.42447 0.023187 0.0179904 0.980812
-0.144887 0.135714 0.183612 0.00499447 0.00921002 0.983144
-0.50916 -0.188639 0.473577 0.000705665 0.00505056 0.983811
0.398148 0.185737 -0.133386 0.0202643 0.0160914 0.981214
0.0971075 -0.0490194 0.46596 0.90183 0.365755 -0.015746
-1.19755 0.0653975 -0.777813 0.903146 0.362644 -0.00794108
0.81452 -0.0731857 -0.746777 0.921281 0.317339 0.00493856
1.27152 -0.199056 0.142934 0.925208 0.307679 0.0136875
-0.814688 0.00370284 -0.736489 0.933268 0.286675 -0.0145439
-0.160342 0.0257468 0.541171 0.922952 0.313338 0.0129692
0.573014 0.0511712 -0.0734767 0.914923 0.332736 -0.0185876
0.730632 -0.161663 0.381847 0.869544 0.447016 -0.0152722
1.53854 -0.223274 0.476173 0.920951 0.318859 0.0318878
0.995327 0.110475 -0.0523652 0.889912 0.395786 -0.0143058
-0.325352 0.137799 0.177106 0.894639 0.384919 0.0259625
-1.16118 -0.121792 -0.738547 0.911992 0.340381 -0.00808255
0.273808 0.0440028 -0.335086 0.879062 0.423182 -0.0105822
1.06701 -0.285237 -0.596332 0.0335481 0.0259427 0.979281
-0.88351 -0.216235 -0.64148 0.00483078 0.00795164 0.983125
-0.237299 0.088293 -0.211167 0.0244399 0.0251249 0.980112
0.181934 -0.0519491 0.425069 0.0298594 0.0328927 0.979039
0.711591 -0.138315 -0.474401 0.208413 0.189562 0.747222
-0.556898 -0.0889687 0.479906 0.390448 0.343231 0.508997
0.919358 -0.00941896 -0.301821 0.771883 0.593314 -0.00775221
1.4593 -0.2358 0.0929922 0.800827 0.553994 0.0184484
0.733881 0.157033 -0.129104 0.801171 0.553988 0.0478198
0.837845 -0.124328 -0.740103 0.829302 0.514358 -0.0158296
0.724759 -0.0876308 -0.285522 0.77224 0.593305 0.0225127
0.112131 -0.059524 -0.346752 0.782472 0.579003 0.00650734
-0.883155 0.178595 -0.836542 0.78002 0.583036 0.0484961
-0.807326 0.0275167 0.304989 0.805964 0.547127 0.0301098
-0.542362 -0.0366669 -0.465357 0.805136 0.548375 0.0371462
1.00028 -0.0526228 0.677585 0.794264 0.563053 0.0215704
-1.069 0.0779919 0.508674 0.747607 0.626886 0.00756681
0.823501 0.0177621 -0.49727 0.0258403 0.0392341 0.97873
-0.368649 0.00340903 0.479024 0.0211926 0.0318882 0.979735
-0.957346 0.0442069 -0.435018 0.0142318 0.029668 0.980386
-0.8329 -0.0389447 0.69146 0.623059 0.748393 0.0503023
0.904235 -0.234421 0.514899 0.653116 0.723429 0.0370986
0.743522 -0.157035 -0.251863 0.705963 0.679176 -0.015488
0.367459 0.0991679 0.0147923 0.00246361 0.0111753 0.982848
0.733231 -0.216331 0.338954 0.0102088 0.0319295 0.980291
-1.1778 -0.104262 -0.8178 0.359135 0.906607 0.000701666
0.361041 0.0298268 0.515191 0.401985 0.886515 0.00113487
0.156822 -0.05337 0.532889 0.455041 0.861538 -0.00772103
-1.57452 0.332229 -0.258212 0.405323 0.885461 0.0493925
0.600422 0.187029 -0.170229 0.403062 0.886146 0.0139342
-0.528364 0.0430193 0.388255 0.416721 0.880121 0.0499296
1.22262 -0.0485174 -0.72384 0.469054 0.855066 0.00177455
-0.484931 0.205431 -0.00220462 0.468939 0.855046 -0.00521943
1.08014 0.129584 0.45615 -0.00335644 0.0181153 0.982097
-0.609841 -0.116841 -0.447713 -0.00274008 0.00872727 0.983178
1.05203 -0.251648 0.551821 -0.00646344 0.0115166 0.98288
-1.21019 0.0947568 -0.638529 -0.000227014 0.015846 0.982339
0.80424 -0.0700424 0.760291 0.0880848 0.973912 -0.00202128
0.929231 0.000319302 0.477448 0.204936 0.95161 -0.0185377
-0.894724 0.0418616 -0.215575 0.133714 0.965424 0.0146208
0.836827 -0.0693387 -0.210984 0.215595 0.949984 0.022718
-1.10894 -0.0253201 -0.0130178 0.180987 0.956607 0.0295125
-0.915587 0.00814199 -0.539762 0.189627 0.954652 -0.00373239
-0.440113 -0.0718121 0.628788 0.0769925 0.975903 -0.0136294
0.376726 0.0372002 -0.560806 0.194082 0.954317 0.0494761
-0.224228 -0.163185 0.590349 0.243182 0.944651 0.0116939
-0.894611 0.312829 0.629139 0.164857 0.959775 0.0410559
0.720266 -0.127059 0.470227 -0.0544945 0.54436 0.483368
-1.03683 -0.257929 0.592498 -0.0680367 0.970912 -0.00407112
1.18938 0.0614948 -0.636018 -0.0491424 0.972467 0.0327222
0.723287 0.179633 -0.101722 -0.112065 0.968124 -0.0001394
-0.288594 0.0455766 -0.366967 -0.00653223 0.975018 0.0130009
-1.40812 0.260937 0.0591867 -0.110725 0.968258 0.00499282
-1.20896 -0.0586061 0.505204 -0.102039 0.968796 0.00291321
0.909772 -0.102979 -0.202376 -0.12711 0.967159 -0.000110195
-0.148434 0.181341 -0.143835 -0.0865633 0.969609 -0.0163326
1.07142 0.0567563 -0.0348643 0.0125854 0.976008 -0.0123732
-0.907534 -0.166228 -0.5387 -0.042593 0.972523 -0.00634902
1.03132 -0.0677529 -0.146422 -0.136652 0.966641 0.00998832
0.0377246 -0.0548871 0.328054 -0.0661756 0.971078 0.000915723
-0.895413 0.0195325 0.691867 -0.00135113 -0.0155285 0.985721
-1.5519 0.272402 0.0460511 -0.344222 0.911775 0.0277043
0.0722033 0.133858 -0.184182 -0.309007 0.923128 0.0137821
-0.448862 0.189102 -0.146951 -0.31121 0.922255 -0.00168874
-0.729738 -0.141487 0.5607 -0.296355 0.927172 0.00530048
-0.780774 -0.140945 0.514458 -0.287182 0.930024 -0.0089347
-0.960064 0.127769 -0.788874 -0.214144 0.953877 -0.00712051
-0.980087 -0.0489441 -0.575369 -0.295021 0.928071 0.0517719
0.961633 0.0269101 -0.107109 -0.3401 0.912726 -0.0117898
0.897255 -0.122359 0.23516 -0.492605 0.840373 0.0155716
1.46694 -0.243233 0.134279 -0.486071 0.84449 0.0119506
-1.51551 0.326205 -0.144442 -0.546509 0.805821 -0.00697598
1.08065 -0.233743 -0.514035 -0.486476 0.844043 -0.00496562
0.762242 -0.0512236 0.372813 -0.506666 0.831524 0.0242923
-0.568612 -0.202068 -0.429547 -0.549701 0.804151 0.0252528
1.18979 -0.119052 -0.491329 -0.442462 0.871918 -0.0166977
0.441874 0.102581 0.0935209 -0.511982 0.828406 0.0478507
-0.042351 0.172732 0.157284 -0.487392 0.843645 0.0114895
1.08516 0.0261186 0.151026 -0.546108 0.806364 0.0187143
-0.673365 -0.106094 -0.572358 -0.446196 0.86957 -0.0142608
-0.688249 -0.167758 -0.641295 -0.566425 0.793214 -0.00113686
1.12307 -0.286348 -0.508785 -0.50622 0.831865 0.0293536
1.18903 -0.0970238 -0.534001 -0.447222 0.868999 -0.00690985
0.305097 0.078031 -0.228457 -0.517162 0.824781 0.0184923
-0.88699 0.232413 -0.665903 -0.495197 0.838735 0.016494
1.41703 -0.243789 -0.375659 -0.0126376 -0.000874096 0.983043
-0.785144 -0.24452 0.648798 -0.00439252 -0.000887507 0.983813
-0.277823 0.185008 -0.140906 0.0138534 -0.0197733 0.986803
-0.543586 0.1854 0.00280085 -0.0103421 0.00162188 0.983087
0.887158 -0.0641002 0.761718 -0.774795 0.596447 -0.00952086
1.31611 -0.169831 -0.143228 -0.691793 0.685479 0.0205394
-1.08495 -0.18821 0.505392 -0.76829 0.603418 -0.00768959
-0.193065 0.18782 0.181714 -0.767425 0.604373 -0.00536859
-1.1789 -0.0948372 -0.82052 -0.707414 0.668576 0.00429682
1.05828 -0.00868673 0.120586 -0.713529 0.662659 0.0484402
-0.895653 -0.066568 -0.312872 -0.67481 0.703562 0.0170322
-0.750763 0.131631 0.0838087 -0.64366 0.736488 -0.00689057
-0.807718 0.0600902 -0.34076 -0.0388946 0.0156725 0.979317
-0.22201 0.137981 -0.191004 -0.000648951 -0.00710626 0.984395
1.27107 -0.212597 0.237342 0.00527323 -0.00714629 0.985034
-0.731199 0.135282 0.556254 -0.0328811 0.00559061 0.980391
-1.0895 0.054451 0.507696 -0.0358912 0.0162121 0.979618
-0.854865 -0.134525 -0.767344 -0.537102 0.200497 0.455568
-1.28926 0.2736 -0.364495 -0.756947 0.340562 0.198948
0.285877 -0.221876 0.588696 -0.817714 0.532987 -0.00630598
0.241378 -0.169226 0.0369455 -0.824345 0.521237 0.0114161
-1.02834 -0.273115 -0.672707 -0.880642 0.418057 -0.0130866
-0.281656 -0.0345505 -0.532391 -0.859494 0.457122 0.0117095
0.539001 -0.0340371 -0.591552 -0.844703 0.483772 -0.00533819
1.50191 -0.231107 0.0325196 -0.857452 0.460607 -0.000530458
-0.892789 0.077204 0.71154 -0.820877 0.527564 0.0114029
0.169114 0.0498798 -0.24469 -0.81125 0.544682 -0.0112898
-1.21552 0.180872 -0.00816569 -0.822007 0.52525 -0.00151502
0.645072 0.0049246 -0.544278 -0.0311458 0.000110297 0.980588
0.149685 0.153309 0.17951 -0.0426263 0.00659603 0.979178
0.0824556 0.0971036 0.199509 -0.960203 0.172969 -0.0180476
-0.922046 -0.0171134 -0.334815 -0.945326 0.232266 0.00982948
1.05574 -0.146898 -0.168941 -0.942311 0.245399 0.045088
1.17913 0.0818314 -0.666024 -0.924289 0.314346 0.00221725
-0.663754 0.123204 0.122374 -0.932969 0.280212 -0.00176943
1.01784 0.148966 -0.741205 -0.934501 0.274821 0.0143431
-0.936741 -0.131947 -0.835381 -0.956078 0.189619 -0.00487983
0.878773 0.0574007 0.137364 -0.916253 0.345166 -0.014911
1.14162 -0.0774095 -0.712043 -0.966985 0.146678 -0.0110958
0.212389 0.0704327 -0.222519 -0.946181 0.229784 0.0327453
-0.601623 -0.0357368 0.572991 -0.959777 0.17563 0.00835447
0.167167 0.11185 0.209292 -0.949794 0.214653 0.00665467
1.06762 -0.118457 -0.351467 -0.949577 0.216086 0.0221547
0.992411 0.143356 -0.617399 -0.928375 0.299104 0.0222722
0.98764 -0.0542256 -0.675661 -0.964212 0.157731 -0.0058729
-0.20028 0.0016874 0.41848 -0.937904 0.261087 0.00342587
0.350735 -0.117608 -0.608359 0.0191304 -0.00672739 0.986261
-0.241626 0.135894 0.222966 -0.0215443 -0.00875495 0.981564
0.253092 0.0283744 -0.522117 -0.716232 -0.174023 0.296789
-0.26168 0.0862745 -0.215712 -0.973062 -0.0597707 -0.018444
-0.829637 0.254239 -0.741748 -0.973757 -0.00725992 0.0480246
0.713933 -0.163217 -0.381336 -0.973541 -0.0157606 0.0262882
0.0272797 0.0766346 -0.23952 -0.973409 -0.0212593 0.0130998
-0.00884646 0.184945 0.136058 -0.973799 8.59262e-06 0.0515172
0.845182 -0.0377783 0.557031 -0.973383 -0.015352 0.00955913
-1.05516 0.0504444 0.732108 -0.973821 0.0229522 0.0508119
0.746751 -0.131104 0.515895 -0.973577 0.0150247 0.026124
0.570283 0.0879098 -0.0456055 -0.973495 0.0545549 0.0121913
0.54962 0.102835 0.256957 -0.973391 0.0777161 -0.00186935
-0.900662 -0.160948 -0.461481 -0.973558 0.0656351 0.0173247
-0.409801 0.267825 -0.0200226 -0.00269757 -0.00433646 0.983688
-0.480105 -0.0841384 -0.540783 0.0114088 -0.00111257 0.985342
-0.689844 0.180557 -0.781143 -0.0274766 -0.00944481 0.980806
-0.933145 -0.0618391 0.59778 0.00657373 -0.00401616 0.984699
0.105457 -0.0440187 -0.404214 -0.00982473 -0.0125157 0.982576
-0.198803 -0.128701 0.592378 -0.931522 -0.286493 0.025814
-0.831129 0.246949 -0.498282 -0.943327 -0.240078 0.00829146
1.01695 -0.160283 -0.159656 -0.953015 -0.202531 0.00805191
0.214931 0.313419 0.0295121 -0.968398 -0.14207 -0.0142291
-0.92522 -0.0524036 -0.371753 -0.93975 -0.254852 0.0322508
-0.650614 -0.043861 0.779038 -0.96811 -0.143348 -0.00998218
-0.0101083 0.109344 -0.20503 -0.955607 -0.19287 0.0180906
-1.01365 -0.0609472 0.793367 -0.953405 -0.200074 -0.0167146
0.896481 -0.10552 0.721803 -0.951842 -0.206684 -0.0022421
-0.20902 -0.00475292 0.361002 -0.443333 -0.15942 0.382512
-1.23237 -0.0482146 0.666688 -0.0197519 -0.0182128 0.981079
-0.992002 -0.0107485 -0.442154 -0.0141891 -0.01184 0.982033
-0.667123 0.0915027 0.146483 0.00886313 -0.00380047 0.984736
-1.15184 -0.0652602 -0.829016 -0.881392 -0.417379 0.00614564
-0.941554 0.309885 0.479646 -0.832896 -0.505303 0.00481009
0.020668 -0.0213414 0.609512 -0.885652 -0.409916 0.0195708
-0.896306 0.135955 -0.708952 -0.866396 -0.445128 0.0342878
1.20945 -0.113862 -0.624798 -0.871736 -0.43533 0.0285735
0.0259539 -0.0511682 -0.50615 -0.88767 -0.405831 -0.00213633
-1.02043 0.0642356 -0.589388 -0.830837 -0.509293 0.0178322
1.09344 0.00522111 -0.0896102 -0.0152675 -0.0232288 0.980969
-0.850396 -0.0966207 0.576372 -0.00244591 -0.0074095 0.983324
-0.396064 0.0503308 0.388354 -0.706659 -0.669191 -0.00839491
-0.904243 0.234363 -0.442235 -0.705112 -0.671376 0.0311146
-1.10508 -0.104921 -0.508192 -0.707379 -0.668601 0.00437106
1.18007 -0.172507 0.651228 -0.746218 -0.627519 0.0171937
1.18939 -0.082342 -0.726938 -0.695172 -0.681329 -0.0130266
0.267885 0.0370488 -0.551299 -0.725627 -0.649763 0.0441799
0.919145 -0.073486 0.558681 -0.675534 -0.702327 -0.00308291
1.07108 -0.014071 0.458184 -0.721598 -0.653539 0.00746443
-0.49251 -0.125303 0.508584 -0.674301 -0.703982 0.0220564
1.36285 -0.205409 0.260932 -0.754188 -0.61875 -0.00494009
0.192583 0.208758 0.118885 -0.770035 -0.602043 0.00427293
-1.21227 -0.0107527 -0.689812 -0.690003 -0.686988 -0.00083122
0.0977978 0.093703 -0.224096 0.0181917 0.016242 0.986757
-0.389167 -0.0736081 -0.610484 -0.581853 -0.783588 -0.00245518
-0.06416 0.254942 -0.0718915 -0.521345 -0.822424 0.04643
-1.20007 0.00471355 -0.0193139 -0.482119 -0.846544 -0.0169742
-0.754036 0.0231658 0.207384 -0.512894 -0.827606 0.0314086
0.18861 -0.0515866 0.447607 -0.552877 -0.802092 0.0124757
0.926663 -0.140729 0.33794 -0.470379 -0.854194 0.00285641
-0.81654 -0.118055 0.841061 -0.495443 -0.838458 0.0141572
-0.326032 -0.0648064 -0.522976 -0.572453 -0.789741 0.015904
-0.724088 -0.209801 -0.545973 -0.599367 -0.772479 -0.00473022
1.17002 -0.0675238 0.666557 0.00593072 -0.00834964 0.983343
0.163431 0.136206 -0.188185 0.000448087 -0.0336643 0.98035
0.299163 0.168732 -0.0636848 -0.0048742 -0.03962 0.979558
-0.922237 -0.0826211 0.693528 -0.322437 -0.918517 -0.0147388
-0.195944 -0.00012466 0.441124 -0.367506 -0.904152 0.00705865
-1.38521 0.3421 0.0646148 -0.268899 -0.936142 0.0158395
0.0517076 -0.0498183 0.336491 -0.282034 -0.931847 0.0112717
1.36296 -0.246974 -0.361769 -0.321183 -0.919148 0.00791523
-0.834448 -0.0526019 0.695817 -0.276088 -0.934054 0.0397762
0.190986 0.144476 0.172327 -0.270036 -0.93586 0.0244474
0.73053 -0.0951127 -0.455998 -0.323956 -0.918209 0.00374888
0.572645 0.0618869 0.0911871 0.00324595 -0.0397918 0.979548
1.1051 -0.130107 0.154444 0.0629821 -0.599361 0.42671
-1.1866 -0.154876 0.566312 0.0137469 -0.309864 0.718758
0.835918 -0.125656 0.737602 0.0224977 -0.809711 0.218676
-1.04298 -0.26096 -0.584727 -0.0735 -0.970668 0.00441691
0.818449 -0.115723 0.243965 -0.0395653 -0.972748 0.00306089
1.2461 -0.102153 -0.095913 -0.0617026 -0.971181 -0.0183408
0.534214 0.0317519 -0.334263 -0.0970595 -0.969512 0.0358726
-0.267426 0.231345 -0.0702537 -0.0656057 -0.97123 0.0123781
0.81472 0.0672386 0.773908 -0.14399 -0.966345 0.00695443
1.49523 -0.19443 -0.0686154 -0.0425415 -0.972606 0.00741734
1.29497 -0.207117 -0.432583 -0.0186997 -0.973852 -0.0162407
0.210508 0.0532213 0.266016 0.00580096 -0.0195211 0.981809
-0.0904567 0.204652 0.176226 0.00914749 -0.0359446 0.979884
0.604426 0.179558 -0.15961 0.00729333 -0.0183865 0.981881
0.459548 0.132957 -0.175672 0.117108 -0.968581 -0.0026654
0.887534 0.1812 -0.0220417 0.255694 -0.941967 -0.00223752
0.730024 -0.101224 0.388983 0.171211 -0.958506 0.0303227
0.880359 0.0847727 -0.119091 0.117616 -0.968455 -0.00568024
-0.4924 0.0220549 0.359039 0.22166 -0.948832 0.0319223
-0.6597 0.0875745 -0.527854 0.201589 -0.952563 0.0190025
-1.30607 0.151019 -0.0118176 0.174946 -0.957954 0.0474619
-0.282172 0.106381 0.22474 0.13905 -0.964474 0.00855458
-0.784047 0.232363 0.794383 0.00913697 -0.0145294 0.982182
-0.410296 0.12439 0.195592 0.377689 -0.898001 -0.000951437
0.704706 0.104665 0.0544191 0.494798 -0.842679 -0.00448499
-1.50868 0.286344 -0.0885302 0.388458 -0.893299 0.0358799
-1.12432 -0.233399 -0.68198 0.414884 -0.881042 0.0568685
-1.42421 0.281663 0.187276 0.371716 -0.90083 -0.000161201
-0.634644 -0.0346328 -0.481857 0.434614 -0.871003 -0.0130159
-0.0416594 0.155982 -0.203698 0.404981 -0.885701 0.0554035
0.93227 -0.0585202 -0.607448 0.412272 -0.881842 0.0151539
0.758486 -0.0799599 0.352293 0.424721 -0.876021 0.0205279
-1.00408 0.272664 -0.661209 0.407329 -0.883979 -0.00381235
-0.625166 -0.0331362 0.596361 0.0331562 -0.0363196 0.978496
0.838007 0.0675027 -0.717275 0.0265617 -0.0216236 0.980211
0.389427 0.103708 0.0562776 0.004484 0.00733718 0.984364
-0.476773 0.033775 -0.384966 0.0128916 -0.0115528 0.982164
-1.06069 0.179275 0.658568 0.369326 -0.357586 0.514648
-0.455721 0.1246 0.223298 0.568464 -0.793194 0.0133651
-0.194533 0.266009 -0.0311351 0.59153 -0.773794 -0.00906941
-0.70452 -0.0606513 0.622749 0.663939 -0.713968 0.00977816
-0.996733 -0.112833 -0.752458 0.706353 -0.678519 -0.0128156
-0.939428 -0.0107247 0.604941 0.683788 -0.697265 -0.0101816
-0.89748 0.0592973 0.0281022 0.596975 -0.769378 -0.000755823
-0.375161 0.292166 -0.0290165 0.661407 -0.715991 0.00347056
-0.680833 -0.00933494 0.651025 0.589421 -0.775572 -0.00669892
-0.847114 0.0509331 0.700102 0.684664 -0.696673 0.000990404
-1.07212 0.181881 0.459835 0.580033 -0.783484 0.00378857
1.27629 -0.225429 -0.216749 0.621095 -0.749256 -0.0105114
-0.523526 -0.0663858 0.4715 0.560932 -0.799059 -0.0183666
-0.0757288 0.139567 -0.171492 0.692276 -0.690233 -0.00955157
0.237828 -0.00574939 -0.444362 0.577144 -0.785704 -0.0108329
-0.801617 0.107539 -0.781456 0.0192949 -0.00957934 0.98167
1.16486 0.0963949 -0.657814 0.0157885 0.000734225 0.982603
0.243505 0.103095 -0.0391232 0.0244146 -0.0111142 0.981066
-0.900539 -0.130885 -0.561067 0.823864 -0.521627 -0.0117488
0.810928 0.117626 -0.12085 0.807548 -0.544585 0.0155492
0.819486 0.0458781 -0.644026 0.761968 -0.607454 0.013386
0.469343 0.0447244 -0.435818 0.795743 -0.561155 0.0327612
0.869674 -0.097657 -0.476293 0.773108 -0.592037 0.010767
0.800479 -0.106837 -0.50414 0.793181 -0.564148 -0.000765402
-1.0652 0.120209 0.805952 0.035721 -0.00322844 0.980072
0.799339 -0.0464428 0.758206 -0.0135617 0.0118944 0.986023
-0.264647 -0.0986495 0.611007 0.00461539 0.00242685 0.983715
0.00434277 -0.187286 -0.574174 0.902386 -0.364543 -0.0105261
0.988707 -0.214889 0.687741 0.916312 -0.329794 0.0104244
0.889941 -0.26937 -0.769771 0.896174 -0.380731 0.00615531
-1.1474 0.140789 0.831419 0.892553 -0.389423 -0.0123255
-0.722853 0.00246072 -0.831201 0.90256 -0.364996 0.02347
1.18014 -0.248192 -0.209166 0.890912 -0.393806 -0.00381533
0.211226 -0.035911 -0.558831 0.887197 -0.40307 -0.00965524
1.16919 0.0829516 -0.466003 0.886022 -0.406675 0.0141842
-0.693676 0.153996 0.079587 0.918232 -0.325497 0.0321547
-0.768104 -0.112092 -0.475861 0.0485052 0.00641388 0.978555
0.567345 0.0358418 0.388281 0.0338201 -0.00115678 0.980255
-0.300907 0.156862 -0.174923 0.0232769 0.00430377 0.981473
-1.17853 0.00308202 -0.504034 0.0347113 0.000223507 0.980152
-0.013925 0.126896 0.195867 0.0190122 0.00494287 0.981966
0.700066 -0.135076 -0.566553 0.935845 -0.0549471 0.0920206
-1.02734 -0.269195 0.702453 0.979223 -0.0125105 -0.0114436
1.40039 -0.20776 0.522938 0.958633 -0.177646 -0.00391515
0.0651941 -0.048021 -0.320679 0.966939 -0.113984 0.0320204
-0.862893 0.119387 0.557001 0.965109 -0.129887 0.048816
0.835919 0.064782 0.586119 0.969948 -0.0868604 -0.00862259
0.709704 0.109649 -0.127565 0.968076 -0.103557 0.0142517
0.103991 -0.0429368 0.388317 0.972044 -0.0701305 -0.00829376
0.0586096 -0.057163 -0.612127 0.568614 -0.142797 -0.464802
0.926997 0.0207486 -0.480458 -0.0454598 -0.0258856 -0.504005
1.41811 -0.236192 -0.238825 -0.0274466 0.00957323 -0.983696
-1.15553 -0.166348 -0.741165 -0.0444262 -0.00790943 -0.619619
0.713239 -0.0962458 0.329673 0.0255241 -0.0327328 -0.975934
1.05473 -0.146225 0.766118 -0.00519779 -0.000873964 -0.980822
0.995975 -0.0843619 0.520581 0.39164 -0.350939 -0.531974
-1.45139 0.270641 -0.164033 -0.0537086 -0.0050001 -0.473212
-0.608713 0.0400732 -0.441134 -0.0461071 0.00105688 -0.597784
1.26978 -0.200098 0.391177 0.016473 -0.0345323 -0.976223
-0.972352 -0.210115 -0.80645 0.34171 -0.532588 -0.412185
-0.876254 0.00258092 0.595908 -0.00158053 -0.00827852 -0.979636
0.956074 -0.0733743 0.293244 -0.0119351 -0.0274672 -0.977261
-1.02115 -0.244674 0.605757 -0.0333703 -0.0586044 -0.972965
0.918203 0.0092834 0.44113 -0.00783381 0.00726181 -0.981001
-0.705847 -0.0484003 0.49405 0.0018942 0.0137397 -0.981949
-0.191749 -0.123769 0.547262 -0.0170586 0.0511092 -0.481883
-1.23433 -0.0440594 0.648771 -0.0443944 -0.045255 -0.973424
-0.256462 0.108256 -0.186129 -0.0054283 0.00902496 -0.981023
-0.959031 0.317112 0.501107 -0.00543802 0.00927947 -0.98105
-0.383429 -0.262281 -0.504966 -0.117129 -0.144548 -0.917704
-1.16133 -0.0934763 0.819748 -0.0965529 -0.150419 -0.924615
-0.410831 -0.0395505 0.469088 0.00995597 0.0161528 -0.982517
-0.379874 0.262955 0.0156485 -0.659835 -0.483049 -0.202976
0.658885 -0.0972847 0.58647 0.000472479 0.0546272 -0.461004
0.217168 0.105083 -0.219054 -0.108368 -0.0409633 -0.967421
-0.650769 -0.0531033 -0.555383 -0.0582642 -0.0206531 -0.973492
-0.669657 0.0643792 0.631454 -0.0660375 -0.0238151 -0.97255
-0.156161 0.296132 0.00445336 -0.183064 -0.0726723 -0.905585
0.587374 0.0277333 0.321549 -0.0731507 -0.00368285 -0.972325
1.03832 -0.205213 0.453717 0.020069 0.0119002 -0.983014
-1.13595 -0.139113 -0.648724 -0.60784 -0.0791809 -0.434697
1.20348 -0.184332 -0.0918456 -0.210835 -0.0582886 -0.879046
-1.02939 0.246757 0.44884 0.0338174 0.0425943 -0.473549
0.29251 0.117718 -0.218125 -0.0275026 0.00945555 -0.977328
-0.230291 0.16419 0.188454 0.0319013 -0.00406727 -0.984069
-0.696941 -0.0162908 -0.453761 -0.0465696 0.0404882 -0.973616
-0.21738 -0.134289 0.571066 0.0427757 0.00272408 -0.6498
0.3005 0.186967 -0.012169 0.0167544 -0.00417657 -0.982195
-0.0356199 0.141825 0.186846 -0.308278 0.627829 -0.335679
1.54217 -0.221462 0.0407101 -0.0576381 0.164614 -0.929605
-0.688272 -0.099513 0.677547 0.0067123 0.0498364 -0.974831
-0.719848 -0.00419156 -0.475071 0.0285797 0.0352489 -0.975444
0.634483 -0.237704 0.567766 0.0175128 0.0215359 -0.977348
-0.996922 -0.254103 -0.438982 0.029528 0.033822 -0.975567
-0.852295 -0.12794 -0.540075 0.0604078 0.0928564 -0.967969
-0.333126 0.0489135 0.258378 0.0383097 0.0316119 -0.974885
-0.912973 -0.181525 -0.806384 -0.00832779 -0.019219 -0.982738
0.725298 -0.0762892 0.28251 0.180187 0.174871 -0.843831
-0.921151 -0.304751 0.642546 0.653534 0.363359 -0.282075
-1.03781 0.269298 -0.734662 0.0251866 0.000216285 -0.977782
0.759391 -0.112676 0.284088 0.0833577 0.0177989 -0.970907
0.901072 0.104501 -0.661358 0.0015392 -0.00803334 -0.980403
1.19622 -0.158774 -0.514492 -0.0285286 -0.0130551 -0.983917
-1.08278 0.206444 -0.507448 0.967401 -0.108377 0.00655401
0.946882 0.130902 0.465747 0.966055 -0.122293 0.048584
-0.786497 0.19575 -0.585742 0.962259 -0.150371 0.0180776
-0.241711 0.0697512 0.215975 0.96791 -0.105829 0.0269217
0.362566 0.0438481 0.562583 0.966039 -0.121275 0.0333019
0.917348 -0.141239 -0.167451 0.963525 -0.137834 -0.0140533
0.919401 0.106229 0.564077 0.956042 -0.197571 -0.0156739
0.993325 -0.0111882 -0.523108 0.975474 -0.0438712 0.00752624
-0.707517 0.125878 -0.801354 0.0138763 0.00424464 0.982553
0.595078 -0.133147 -0.576947 0.00163956 0.0061018 0.983966
1.02817 0.100643 0.571703 0.945607 -0.254916 -0.0143456
0.340044 -0.113583 -0.591327 0.897528 -0.377322 0.00715524
0.145436 0.049763 0.26419 0.923406 -0.311535 -0.000455907
-0.0674612 -0.0208442 -0.489516 0.896565 -0.380731 0.0460305
1.29999 -0.22198 0.495099 0.904159 -0.359983 -0.014094
0.832981 -0.165745 -0.518218 0.940213 -0.268862 -0.00329502
-1.18539 0.0869572 0.556094 -0.0212712 0.0139983 0.98693
-0.0494177 -0.0162529 0.28976 -0.0241332 0.0162225 0.987312
0.951684 -0.011916 0.30191 0.761639 -0.607919 0.0152001
0.0532546 -0.0536252 0.535633 0.76365 -0.604869 -0.00221104
0.0262756 0.0539968 -0.245595 0.754639 -0.617184 -0.00975271
-1.1602 -0.058074 -0.738909 0.808931 -0.542275 -0.00878102
0.33736 0.107447 0.211985 0.816301 -0.532635 0.0246104
0.718348 -0.209928 0.338754 0.795177 -0.562018 0.0392199
-0.80807 0.271127 -0.508405 0.851882 -0.482922 -0.0138618
0.942448 -0.143682 -0.438605 0.00713126 0.00117818 0.983498
0.277351 0.0213893 -0.431108 0.672087 -0.707051 -0.00348417
-0.691347 -0.167383 -0.657457 0.574992 -0.787817 0.0161012
-0.392088 -0.106496 -0.571243 0.648176 -0.726884 -0.00336549
0.142779 0.143213 0.170704 0.655684 -0.720744 0.00376688
0.433288 0.110629 -0.081679 0.622107 -0.748561 0.00129163
-0.468682 0.115089 0.224373 0.645904 -0.729085 0.0225573
-0.731571 -0.200963 0.622006 0.591623 -0.773979 0.0123828
-1.23147 -0.0910597 0.495465 0.672429 -0.706675 -0.0110507
0.449509 0.156453 0.181341 0.00363722 0.00579738 0.984301
0.741713 0.115368 0.170016 0.0361605 -0.0350951 0.978343
0.868323 -0.0510433 -0.473282 0.385102 -0.894443 -0.00742545
1.0154 0.0474154 0.507728 0.436042 -0.870838 0.0352543
0.790341 -0.0464289 0.738051 0.450854 -0.863579 0.00954935
1.34346 -0.225358 -0.349835 0.315812 -0.92709 -0.0136199
-0.211326 0.126067 -0.18249 0.0175155 -0.0265779 0.980479
-0.951402 0.0345158 -0.205493 0.122308 -0.967806 0.0210428
-0.182243 -0.0180086 0.340099 0.0905226 -0.973633 -0.00809218
-0.144665 -0.0872018 -0.567352 0.133402 -0.965492 0.00178333
0.654904 -0.0431436 0.589957 0.148324 -0.962581 -0.00295789
0.917203 -0.0812022 -0.679545 0.00816039 -0.035374 0.979984
-0.483106 0.0643231 -0.245334 0.00876427 -0.0145663 0.982243
-1.03975 0.12766 -0.479846 0.00873905 -0.00972402 0.982774
0.71621 -0.212688 0.245997 0.00994831 -0.0205455 0.981545
0.0148867 0.165808 -0.196619 -0.147858 -0.966001 -0.00446835
0.925049 0.0148176 0.297315 -0.0695583 -0.970724 -0.0154772
-0.00284405 0.270378 0.0697811 -0.00366411 -0.975012 0.00865527
1.21102 -0.0207575 -0.67275 -0.085613 -0.970072 0.0205418
-0.901876 -0.278179 -0.611607 -0.0215796 -0.974111 0.0303481
1.06112 0.0207788 0.123023 -0.0921706 -0.969859 0.0409267
-1.14243 -0.0487633 -0.456787 -0.0467147 -0.972534 0.0273746
1.00604 -0.00452338 0.629263 0.00872805 -0.0394056 0.979555
1.49628 -0.260282 -0.0712551 0.00813051 -0.0493628 0.978414
-1.06193 0.0386751 -0.449275 -0.351461 -0.909235 -0.00383933
-1.34545 0.30382 0.33218 -0.238571 -0.945809 0.000987174
-1.40881 0.294472 -0.0111954 -0.321851 -0.91883 -0.00233023
-1.22713 0.0910479 0.807266 -0.00416912 -0.048302 0.978589
-0.324391 0.217491 0.15958 -0.00998121 -0.0490524 0.978379
1.20894 -0.0583557 0.536141 -0.549632 -0.804406 0.0349995
1.17777 -0.0672818 0.715933 -0.507797 -0.830471 -0.00130693
-0.654765 -0.040838 0.588736 -0.584281 -0.782072 -0.00103168
-0.913401 0.0568363 -0.54762 -0.566609 -0.79355 0.0250777
0.16063 -0.0495658 -0.450339 -0.422519 -0.884258 -0.0172806
0.343334 0.0348109 0.566441 -0.541545 -0.809455 0.0289077
-0.0496565 0.107073 -0.215397 -0.526348 -0.819164 0.0371305
0.345248 0.0302409 -0.482324 -0.0103196 -0.0245969 0.981077
0.412261 -0.207481 0.603386 0.000976643 -0.0118529 0.982963
0.868667 0.196404 -0.0237747 -0.719293 -0.65668 0.056767
0.190708 -0.05228 0.42216 -0.73107 -0.643837 0.0324965
0.393702 -0.119459 -0.593293 -0.772079 -0.599592 -0.0172592
-0.915945 -0.0506092 0.335273 -0.716636 -0.659299 0.0419191
-0.502418 -0.0376219 0.461364 -0.741082 -0.632819 0.00463912
-1.38164 0.346486 -0.0074623 -0.690133 -0.670274 0.0710681
-0.426773 0.218771 -0.0713212 -0.00737285 -0.0157078 0.982211
-1.36819 0.264639 0.381821 -0.00372519 -0.0107422 0.982921
0.261591 0.0381931 -0.571224 0.000283988 -0.0119904 0.983105
0.149183 0.143629 0.180958 -0.878372 -0.422698 -0.00236332
0.721064 -0.174818 -0.51925 -0.827469 -0.514908 -0.00811668
0.362176 0.0803538 0.108844 -0.85859 -0.459402 0.039436
-0.983935 0.294504 -0.812021 -0.861756 -0.452642 -0.012133
-0.255195 0.113321 -0.225183 -0.857096 -0.462505 0.0593883
-0.0349251 -4.2135e-05 -0.585896 -0.855526 -0.463884 -0.0150473
-0.901089 -0.207112 0.817474 -0.385767 -0.27081 0.557426
1.11965 0.112289 -0.60698 -0.0177633 -0.0142288 0.981531
-0.949848 0.0215045 0.0567654 -0.0315102 -0.0237855 0.979598
0.150526 0.0312019 -0.580644 -0.0209218 -0.0193335 0.980889
0.490214 0.0351566 0.382534 -0.95111 -0.20911 -0.0136979
-1.13472 -0.124465 -0.746828 -0.961468 -0.169548 0.00103393
0.230108 -0.125 0.0640733 -0.961731 -0.168873 0.0100544
-0.938771 -0.119082 -0.820483 -0.95862 -0.180238 -0.00789692
0.577807 0.0840998 0.0446632 -0.916498 -0.343154 -0.0150797
-0.231291 -0.099864 0.616846 -0.939059 -0.258091 0.0459192
-0.645513 -0.0617289 0.589839 -0.960802 -0.171856 -0.00597826
0.934873 0.0109377 -0.214283 0.00757529 -0.00528064 0.984753
-0.938839 0.0466564 0.689724 -0.973351 -0.0197045 0.00559135
1.40556 -0.198077 -0.092058 -0.973518 -0.00365249 0.0211871
-0.733789 0.183999 0.797992 -0.97348 -0.0356102 0.0213695
-1.51572 0.323185 -0.290537 -0.97331 -0.011927 0.000152205
-0.124771 -0.122843 0.605426 -0.973481 -0.0180067 0.0191156
-0.225985 0.161861 0.179521 -0.973518 -0.0297147 0.0246448
0.299452 0.233843 0.0637352 -0.973097 -0.0769328 -0.0137459
1.30342 -0.235785 -0.426729 -0.973547 0.0535234 0.016704
-0.114526 0.158843 0.186993 -0.973327 -0.0684481 0.00954907
-0.85481 0.149689 -0.502916 -0.0209527 -0.00316452 0.981711
0.102994 0.240313 -0.0989561 -0.926575 0.305029 -0.00774775
0.0935831 -0.187323 0.609085 -0.942202 0.245749 0.0415202
1.38631 -0.199936 0.423791 -0.933326 0.279288 0.0101072
0.0481557 -0.0478095 -0.314662 -0.0257459 0.00111688 0.981194
-1.19036 -0.0233662 -0.0279251 -0.0500691 0.00601608 0.978331
1.09298 0.128858 -0.553325 0.00477436 -0.0093075 0.984845
0.883604 -0.193129 -0.684706 -0.0385112 0.00399848 0.979687
-0.297984 0.162726 0.181416 -0.268697 0.119074 0.591059
1.04486 0.102167 0.54702 -0.835474 0.500971 0.0115697
-1.55557 0.345501 0.0364608 -0.901082 0.380805 -0.0116523
-0.802935 0.0226581 0.204794 -0.820697 0.527615 -0.00440958
1.09983 0.0113928 0.550664 -0.868222 0.441117 0.00627679
0.53659 0.0456515 -0.475885 -0.846843 0.480364 0.0183963
-0.70087 0.145057 -0.517869 -0.0333824 0.00912945 0.980186
-0.928132 0.238523 -0.677281 -0.0460509 0.0212867 0.978305
-1.52775 0.327369 0.224092 -0.661231 0.718006 0.01265
1.1175 -0.0556965 -0.504912 -0.717768 0.657245 -0.0170402
-0.269172 0.0330571 0.474654 -0.0415245 0.0281935 0.97836
0.0682317 0.0407648 0.250015 -0.0316521 0.0229153 0.979642
1.19297 -0.00319207 -0.702757 -0.570272 0.790774 -0.000153556
0.0341734 0.0657598 -0.221492 -0.473494 0.852278 -0.00773506
0.372673 0.0865754 0.0520488 -0.532001 0.815002 -0.0117037
-1.38783 0.282094 -0.0891517 -0.495103 0.838488 -0.011215
-0.0626213 0.0325145 -0.573586 0.0104636 -0.026365 0.987281
0.89206 0.0705068 -0.730371 -0.0236997 0.0283445 0.979893
0.207175 0.188623 -0.158149 -0.346037 0.910905 0.000418878
0.723515 -0.227269 0.498555 -0.344085 0.911812 0.0278835
-0.000580516 -0.0382627 -0.486562 -0.27203 0.935277 0.0232371
-0.114998 0.231787 0.0840697 -0.337973 0.913554 0.00220081
0.483426 -0.0497185 -0.599123 -0.36625 0.90435 0.00448223
0.715432 -0.0645433 -0.532785 -0.249402 0.942408 -0.0024365
-1.0261 0.22641 0.501283 -0.277508 0.93349 0.0233208
1.37946 -0.232527 0.259099 -0.011377 0.0119497 0.982356
0.231344 -0.0284027 -0.521995 -0.0245576 0.0414941 0.978619
1.26241 -0.241424 -0.472094 0.00391759 -0.0283762 0.987325
0.13469 0.213782 -0.106287 -0.0713484 0.970906 0.0183133
1.00906 -0.121002 -0.613799 -0.00521359 0.974869 -0.0112517
0.909753 0.0181936 0.457206 -0.0469967 0.972161 -0.0140578
0.53574 0.108515 0.212119 -0.0972516 0.969111 0.00437009
-0.884015 0.00125215 0.0470634 -0.0811281 0.970225 0.0127136
0.758403 0.0969303 0.112997 -0.117398 0.967762 -0.00150845
-0.194166 0.00399142 -0.474493 -0.253308 0.815175 0.180978
1.11414 -0.0101509 -0.743528 -0.00378258 -0.0170303 0.986015
-1.08199 0.209527 0.577491 0.202366 0.952265 -0.00217068
-0.315634 0.0530367 -0.462453 0.115885 0.96855 -0.012834
-0.993607 -0.0321438 -0.300719 0.100552 0.971552 -0.00271211
0.145036 -0.0419449 -0.347472 0.266676 0.939927 -0.018198
0.0309698 -0.031502 0.600219 0.22427 0.948035 -0.0105574
0.453119 0.120505 -0.187472 0.224047 0.948016 -0.0168906
0.669588 -0.197848 -0.558399 -0.0242873 0.776954 0.255166
1.09194 -0.0221478 -0.702485 0.00455389 0.0318823 0.980451
1.30498 -0.207741 -0.150189 -0.0105374 -0.0195214 0.986492
0.946886 -0.13915 0.302555 -0.00572826 0.00178225 0.984
-0.796986 0.104377 0.0551171 0.399978 0.887888 0.0422026
0.952226 -0.0161139 0.432725 0.360843 0.905887 0.00738562
-0.954612 0.241925 -0.719582 0.422631 0.87732 0.047752
1.46403 -0.208192 0.111892 0.00595674 0.0307299 0.980572
-0.301629 0.145403 -0.196012 -0.000989266 0.0178509 0.982235
-0.767559 0.064776 -0.799167 0.707828 0.677605 -0.0179708
-0.322184 -0.0319436 -0.501493 0.637596 0.736167 0.0330949
1.60604 -0.257609 -0.000260579 0.638669 0.735429 0.045361
-0.910947 0.217364 0.450888 0.660529 0.716824 -0.00203897
1.07048 0.134428 0.647422 0.574667 0.787783 0.00712753
-0.73157 -0.158604 -0.791999 0.542789 0.813901 -0.00847969
1.12708 -0.220016 0.188972 0.286079 0.488872 0.462783
1.07387 0.0176185 -0.480894 0.00735238 0.0223186 0.981532
-1.44259 0.305638 -0.23219 -0.0187206 -0.011721 0.986468
-0.790309 -0.0874694 -0.499224 0.105317 0.0832995 0.779556
-1.17865 -0.0462566 0.504835 0.776167 0.588201 0.0413169
-0.301928 0.275984 -0.0706142 0.791318 0.567327 0.0366024
0.582025 0.0387932 0.378934 0.782118 0.57955 0.0109653
-1.12923 -0.077293 0.478508 0.778889 0.584151 0.0215067
1.07816 -0.277494 -0.523245 0.00680504 0.0134893 0.982525
-0.855286 -0.297383 -0.562549 -0.0312449 -0.0159664 0.98806
-0.458201 -0.0780004 0.548896 0.0307471 0.0276389 0.979392
0.0402285 0.0129215 0.273513 0.0379516 0.0334626 0.978324
-0.0245346 -0.00054283 -0.619491 0.924045 0.310532 0.00947363
0.918369 0.0669732 0.133859 0.947899 0.249821 -0.0175304
-1.35303 0.300279 0.0334134 0.878593 0.424714 0.00210407
-0.655387 0.0387443 0.352578 0.966806 0.115048 0.0293678
-0.493674 -0.223468 0.468864 0.960732 0.160624 0.00201937
0.000414242 -0.0369046 -0.457692 0.964861 0.127856 -0.00327617
-1.19784 -0.079071 0.78225 0.955945 0.196817 -0.0159539
-0.428271 0.182374 -0.154283 0.963888 0.136486 0.0101204
1.01662 0.123188 0.568692 0.96492 0.126453 -0.0158555
-1.05237 0.113043 -0.494188 0.00257108 0.00439264 0.983748
0.195591 0.136884 -0.190386 0.0366838 0.0134779 0.979669
-1.35608 0.315503 0.13779 0.0101991 -0.0100181 -0.979476
-1.56793 0.320122 0.0551617 -0.0348473 -0.00631524 -0.984415
0.36489 0.277736 -0.0564041 0.0196686 -0.000476793 -0.978364
1.02959 -0.198621 0.533397 0.110197 0.0591334 -0.966354
0.0920039 -0.0490198 0.301471 -0.0270879 -0.0250144 -0.9846
-0.599625 0.0512344 -0.188227 0.00292159 -0.00906358 -0.980805
0.174918 0.0843993 0.259091 0.0403566 0.0571686 -0.972596
-0.329331 -0.107957 -0.593089 0.0319725 0.084755 -0.970311
0.546816 -0.0296769 -0.57456 0.0283417 0.07823 -0.97109
-0.0114502 0.0547885 0.23385 0.0199967 0.035762 -0.976056
1.14858 0.0412375 -0.576948 0.019601 0.0486534 -0.974569
0.408884 0.283394 -0.00967544 0.0125924 0.00714935 -0.979414
-1.40731 0.303972 0.204142 0.0246976 -0.0379008 -0.625709
1.09892 -0.0257788 0.74464 0.0346992 -0.0340784 -0.551254
1.00925 0.155932 0.718687 0.0208624 -0.0311016 -0.984641
0.144178 -0.0399229 0.354154 0.00564197 0.00824074 -0.980302
-0.916554 0.236426 -0.663922 -0.216514 0.146424 -0.831681
1.31732 -0.206793 -0.160178 -0.0115311 0.0149602 -0.978454
1.11071 0.0928181 0.792633 -0.0564396 0.0276438 -0.973448
-0.916071 0.0653433 0.0736368 -0.0198344 0.00955221 -0.978192
0.853509 -0.118635 0.709066 -0.0460766 -5.46592e-05 -0.975367
-1.03313 -0.271295 -0.608116 0.00415212 0.00942164 -0.981361
-0.942482 0.309351 -0.490868 0.0019875 0.0529554 -0.486022
0.174583 -0.0459249 -0.356659 0.0073401 0.0287465 -0.9837
1.31121 -0.10136 0.0873089 -0.0399278 -0.0434433 -0.973814
-0.816093 -0.279771 0.535761 -0.0501526 -0.10446 -0.967374
0.344281 0.0530001 0.389802 -0.154729 -0.841405 -0.159899
1.50198 -0.218122 -0.468691 -0.00820533 -0.0102499 -0.979495
0.503174 0.0269648 0.448544 -0.00748392 0.0198751 -0.982784
-1.06245 -0.206949 0.628534 -0.0144817 0.0297844 -0.984123
0.883687 -0.0149156 -0.141646 -0.00695777 -0.0072299 -0.980058
0.791299 -0.0483457 -0.215036 0.0351043 -0.110838 -0.967333
0.141214 0.171806 -0.148603 0.0149072 -0.021626 -0.977616
-0.947424 0.285626 0.832033 -0.00859081 0.00898187 0.981569
-0.889882 0.136978 -0.794894 -0.0021139 0.00600373 0.980758
1.19744 -0.0609075 0.60789 0.014324 -0.0145813 0.978564
0.596753 -0.241082 0.562846 -0.00037588 0.0348582 0.984373
-0.926848 -0.228453 -0.506698 0.0129896 -0.0247161 0.977404
0.494725 -0.116089 0.641959 0.00654815 -0.00648637 0.979553
-0.960512 -0.110408 -0.542232 0.0384016 0.028104 0.574298
