-1.23486 0.307244 -0.55516 -0.290998 0.715132 -0.0164762
0.673271 -0.327428 -0.187044 0.312306 -0.650594 -0.263011
-0.169257 -0.00191914 1.62112 0.443013 -0.64103 -0.209686
0.199096 -0.0708221 1.19919 0.138737 -0.226755 -0.631414
-0.126527 -0.192605 1.3623 -0.215311 0.515878 -0.666957
-1.62101 -0.303454 -0.0524565 -0.407829 0.813568 -0.00994573
-0.451377 0.519859 -0.485536 -0.387432 0.71331 0.145494
-1.31225 -0.286481 -0.0713106 -0.405798 0.723661 0.117502
-0.131269 0.0267756 0.537019 -0.390523 0.717352 0.137561
0.0735218 -0.388157 -0.458356 -0.465402 0.791499 -0.0213197
-0.0152368 0.278416 0.123928 -0.33348 0.775444 0.0980795
1.31881 -0.289893 0.0655793 -0.279859 0.515645 0.419707
0.0664599 0.224058 0.0987689 -0.346403 0.759469 0.00565373
0.230473 -0.147271 1.58586 -0.193444 0.307053 0.780722
0.873372 -0.395327 -0.0962315 -0.161649 0.243347 0.870022
-0.972931 -0.311081 -0.249157 -0.17329 0.297284 0.804723
-0.341347 -0.390439 -0.476074 -0.18176 0.309001 0.78653
0.0740339 -0.0713084 -0.827268 0.601829 -0.574826 -0.147012
-0.074302 -0.0749948 1.29103 -0.014127 0.13231 -0.713601
1.3848 -0.497721 -0.0275779 -0.590228 0.536166 0.168776
-0.126784 0.282076 -0.139272 -0.62221 0.546364 0.121306
0.209571 -0.0758429 1.64075 -0.684503 0.584805 0.00830394
-0.332734 -0.403602 0.0578001 -0.526228 0.540718 0.236169
0.20189 0.201321 1.42228 -0.441457 0.4749 0.0586712
-0.981001 0.245341 -0.265637 -0.490004 0.506835 0.185257
-1.30822 -0.543472 -0.250556 -0.458008 0.384724 -0.19398
1.10466 -0.291582 -0.422977 -0.401165 0.439523 -0.194153
-0.139666 0.294441 0.0946887 -0.393124 0.393223 -0.199688
-0.0366698 -0.382257 -0.503219 -0.511122 0.603755 -0.166271
-0.238029 -0.23449 1.49249 -0.661355 0.542456 -0.0292883
1.16484 -0.365071 -0.629829 -0.522614 0.426603 0.274589
-0.0716372 -0.175059 0.295503 -0.287883 0.225891 0.777159
-0.0930062 -0.0901373 1.66332 -0.161793 0.17352 0.941722
-0.371585 -0.00532452 1.61457 0.294838 -0.131886 -0.618341
-1.54744 0.287538 -0.0211216 0.26219 -0.103141 -0.627614
1.38673 0.532705 -0.250645 -0.818849 0.358964 0.0164118
0.988882 -0.399089 -0.274119 -0.874328 0.300735 -0.0213743
-0.0770373 0.217323 1.58721 -0.748652 0.372453 0.106493
0.623499 0.312668 -0.00210246 -0.83227 0.410536 -0.0388381
-0.317311 0.61164 -0.326733 -0.64 0.280728 0.187475
0.997322 0.269413 0.0771129 -0.629761 0.379715 -0.174241
1.54436 -0.289477 -0.0444433 -0.778983 0.31028 -0.00162572
-1.53751 0.408803 -0.361245 -0.251872 0.140665 0.877846
-1.12156 -0.137761 -0.544593 -0.312643 0.128485 0.812285
-1.36018 0.13719 -0.0780856 -0.318208 0.103847 0.817235
0.90638 -0.328202 -0.311908 -0.811876 0.218862 -0.242458
0.181153 0.0377775 -0.682945 -0.685631 0.149002 -0.448957
-0.172952 -0.17388 1.53075 -0.853542 0.0804107 0.0748323
-0.787912 0.366371 -0.272915 -0.895944 0.133322 -0.00374275
-7.80658e-05 0.0319807 0.955422 -0.883938 0.0633464 0.0311571
-0.0624964 -0.00142432 1.6188 -0.675977 0.0896979 0.145058
-1.11046 0.4096 -0.18592 -0.540651 0.11889 -0.200262
1.3058 0.352915 0.0105662 -0.920197 0.0472969 -0.139602
-1.26033 0.316724 -0.054161 -0.770887 0.0365365 0.112226
1.39341 -0.330153 -0.43296 -0.770855 0.0139777 0.117166
-0.0568712 0.225609 -0.318771 -0.335576 0.0573949 0.811586
-1.17556 -0.0326076 0.233682 -0.348746 0.00874282 0.798948
0.083685 0.241601 -0.424878 -0.380095 0.068465 0.754646
0.947056 0.229868 -0.358266 -0.341392 0.0172864 0.807514
-0.864051 -0.258101 -0.415927 0.24685 0.0941789 -0.631638
-0.0750058 -0.217514 1.58258 0.179892 0.0689118 -0.648241
-0.303749 0.275051 0.0140893 0.113937 0.0825778 -0.661842
0.289945 0.145809 1.55252 0.105087 0.0882459 -0.663393
-0.217602 0.34554 -0.428779 -0.627775 -0.0868062 -0.550773
-1.16938 0.257574 -0.0708805 -0.90154 -0.121318 -0.00898688
-1.55992 -0.339085 -0.263031 -0.891867 -0.141416 0.000783352
0.330229 -0.166577 1.69016 -0.854677 -0.0361949 -0.157617
-1.07187 0.337615 -0.113061 -0.859493 -0.278723 -0.101603
-0.0367998 -0.187181 0.74649 -0.29629 -0.0670534 0.855596
0.0768493 -0.0797238 1.61044 -0.321093 -0.0442957 0.832372
-0.0759396 -0.0733127 1.51503 -0.326995 -0.105392 0.806116
-0.0267653 0.543289 -0.453128 -0.330758 -0.095561 0.804581
-0.133877 -0.00241793 -0.814884 0.558409 0.224012 -0.391028
-1.2583 -0.226416 0.000802655 0.649791 0.336724 -0.251997
-0.892314 -0.271673 0.0317845 0.240008 0.150932 -0.627222
-0.126641 0.00178563 0.454485 -0.777971 -0.4307 0.022915
-0.452084 -0.0728154 1.52014 -0.690651 -0.40318 0.165539
0.406345 0.205186 -0.425096 -0.821567 -0.462307 -0.0614041
-0.0176906 -0.356892 -0.252442 -0.723092 -0.419113 0.108362
0.0814471 -0.155323 1.48309 -0.626433 -0.342244 0.214991
-0.0636668 -0.0644358 1.46134 -0.527154 -0.31345 0.00293906
-0.275496 0.517409 -0.465009 -0.628087 -0.270121 -0.181611
-0.898061 0.287426 -0.180119 -0.712545 -0.311815 0.102676
-0.000406196 -0.0547841 1.33282 -0.265095 -0.204516 0.818118
1.32286 0.367485 -0.227629 0.438014 0.502975 -0.321785
-0.215151 -0.0324697 -0.692557 0.0842475 0.19291 -0.64521
1.50757 0.226815 -0.29967 -0.682491 -0.557334 0.0440559
0.00328721 -0.237399 1.33778 -0.575899 -0.708393 -0.00877873
-1.5647 0.45369 -0.112765 -0.603689 -0.561285 0.126804
1.27114 -0.31226 -0.135095 -0.416038 -0.541799 0.160348
0.0816222 -0.0798461 0.695803 -0.55387 -0.657523 -0.0377291
-0.415982 0.0704877 1.43559 -0.335072 -0.313175 0.636865
0.174168 -0.269494 1.56154 -0.249474 -0.255928 0.789135
1.24724 0.231892 -0.00145393 0.440291 0.564397 -0.128225
-1.22531 0.189353 -0.187045 0.290952 0.595302 -0.324826
0.0635211 0.120026 1.44192 -0.202206 -0.241582 -0.760743
-1.24111 -0.338201 -0.205628 0.0583578 0.315816 -0.619075
-0.42262 0.596472 -0.330162 -0.233219 -0.442852 -0.753713
-1.13455 -0.196243 -0.460428 -0.373272 -0.748777 0.105919
-0.106034 0.224829 -0.435647 -0.323674 -0.779899 0.0966948
-0.0601569 0.0575363 -0.69735 -0.524086 -0.793543 -0.0635302
0.165533 -0.365052 -0.0647815 -0.435072 -0.824615 -0.0449739
0.647768 -0.416762 -0.317434 -0.338912 -0.614081 -0.178753
1.27107 -0.418663 -0.542906 -0.422558 -0.649384 -0.168793
-1.1465 0.103113 -0.0514509 -0.373698 -0.591364 0.238129
1.20892 0.149083 -0.113131 -0.235848 -0.48222 0.503751
0.246784 0.276617 0.0616133 -0.243462 -0.536083 0.416339
-0.0273344 0.151954 0.611505 -0.110253 -0.185794 0.969097
-1.35927 0.444231 0.11323 -0.158524 -0.27317 0.844268
0.0712114 -0.142729 1.39829 -0.113187 -0.34188 0.784958
-0.0356307 -0.0366765 -0.818591 0.0747238 0.49904 -0.490358
0.384912 -0.224376 1.39999 -0.0663456 -0.00351402 -0.693703
1.12591 0.365684 -0.330132 -0.196036 -0.862614 0.0343667
0.0679217 -0.0659151 1.59707 -0.174498 -0.898268 -0.0164271
-1.04445 -0.321457 -0.0853357 -0.259508 -0.909384 -0.0534369
-0.176496 -0.129283 0.846599 -0.0599234 -0.918849 -0.0221712
0.0687327 -0.139177 1.29926 -0.0270594 -0.672302 0.137615
-0.838682 0.29291 -0.270121 -0.199183 -0.678851 -0.178576
0.0843352 0.236224 -0.283513 -0.0257901 -0.755826 0.140079
0.0899404 0.0656747 -0.474934 -0.0713142 -0.35145 0.790075
-1.16153 0.316406 -0.45543 0.0190874 0.440217 -0.107888
1.39231 -0.31958 -0.0410172 0.165481 -0.892349 -0.00570948
-0.843933 0.354611 -0.0334795 0.124376 -0.937246 -0.0648402
-0.681081 0.2765 -0.250217 0.0246109 -0.605735 -0.192797
-2.33616e-05 -0.0100047 1.45694 0.072495 -0.535064 0.499417
-1.2692 0.305222 -0.00292629 0.143074 -0.734059 0.14854
-0.115648 0.116023 -0.765437 0.105818 -0.360351 0.764815
1.21877 -0.49108 -0.0943284 0.0655743 -0.32863 0.816028
0.651491 -0.0797481 1.39893 0.0533177 -0.261018 0.902364
-0.049837 0.0984129 -0.814956 0.0377541 -0.363165 0.782511
-0.1465 0.259886 -0.15465 0.0507693 -0.25483 0.910708
0.149966 -0.00201296 1.54072 0.095804 -0.315924 0.822154
1.29487 -0.40036 0.0596463 0.422509 -0.623813 -0.0170736
-1.55935 0.417392 -0.217852 0.494268 -0.546819 -0.0193999
-0.142736 0.170437 -0.670903 0.254377 -0.636634 -0.0227777
-0.00345111 0.156261 0.684453 -0.331483 0.513656 -0.381957
1.34893 0.244273 -0.0192035 0.254356 -0.729664 -0.349589
0.817121 -0.372088 0.0553704 0.420681 -0.82869 -0.0400535
0.875216 0.247165 -0.356829 0.368111 -0.705353 0.171122
1.03146 -0.438808 -0.375265 0.262961 -0.571962 0.0177918
-1.04244 -0.3491 -0.173561 0.481375 -0.758902 -0.101694
0.104695 -0.185499 -0.46832 0.465211 -0.645464 0.0788487
-1.05408 0.380261 -0.321027 0.307054 -0.84188 -0.0840745
0.0990125 -0.347866 -0.091241 0.153862 -0.344253 0.767337
1.44382 -0.325867 -0.101692 0.122545 -0.219601 0.921089
0.707858 0.320469 0.0400005 0.155522 -0.274903 0.840047
1.53911 -0.217579 0.0350361 0.207468 -0.313092 0.764469
1.15307 0.339949 0.00423868 0.176464 -0.342779 0.75371
0.172487 -0.168085 1.54403 -0.365987 0.370478 -0.473408
-0.132941 -0.356866 -0.028515 -0.547877 0.536621 -0.215807
0.0246298 0.0505633 -0.62585 -0.550144 0.482675 -0.254108
-0.0672851 -0.14261 1.72397 -0.484095 0.451696 -0.325899
0.131688 -0.392503 -0.467256 0.077714 -0.153585 -0.728225
-0.390079 0.620895 -0.4097 0.567614 -0.669048 0.0479678
0.082337 -0.234239 1.39474 0.578196 -0.696114 0.00611483
0.00219499 0.100894 -0.471516 0.655205 -0.666575 -0.0481434
-1.38777 0.392518 -0.246016 0.574559 -0.643247 0.0686441
-0.0868979 0.524535 -0.454167 0.649927 -0.555774 0.0802605
1.30861 0.253271 0.0701573 0.58958 -0.750812 -0.0671786
0.957878 -0.276774 -0.244789 0.358662 -0.445227 -0.125086
-0.868241 0.119654 -0.209669 0.468348 -0.52953 -0.17764
-0.856162 -0.30132 -0.555264 0.264231 -0.270569 0.763577
-0.11123 0.147064 -0.715567 0.192566 -0.184751 0.902
-0.00190383 -0.220967 1.55887 0.224675 -0.233917 0.831358
1.55343 0.444641 -0.116271 -0.792466 0.263255 -0.154526
-0.0902207 0.114176 0.552764 -0.479146 0.284556 -0.436394
-0.200665 -0.0971732 1.66475 0.462506 -0.302024 -0.679796
0.419502 -0.0817391 1.66023 0.581726 -0.339933 -0.491419
0.23406 0.0755705 1.53563 0.465199 -0.33176 -0.655509
-1.15875 -0.264332 -0.131357 0.783677 -0.518209 -0.0446448
0.117079 -0.359798 0.0103368 0.795309 -0.37978 0.0360859
0.333433 -0.351676 -0.0800657 0.743194 -0.339701 0.137932
-0.573245 0.242819 -0.0785977 0.782741 -0.389914 0.0467471
0.00198664 0.197075 0.975127 0.706187 -0.358232 0.177261
-0.208603 0.0733553 1.40487 0.824269 -0.370154 0.0018856
0.672232 0.330012 -0.284152 0.770611 -0.458181 0.015977
0.13963 -0.348608 -0.00370664 0.832524 -0.369961 -0.125002
0.455881 -0.161933 1.38372 0.799151 -0.435601 -0.121731
0.678647 -0.340609 -0.114645 0.306114 -0.13142 0.817817
-1.60892 0.299471 -0.0642887 0.205588 -0.117904 0.941641
0.129961 0.256308 -0.128549 0.246249 -0.110454 0.897572
1.23735 -0.311398 -0.239744 -0.528881 0.0454495 -0.464345
-1.1785 0.190224 -0.179426 -0.629386 0.0518659 -0.359428
1.00337 0.182735 -0.319835 0.145203 -0.110539 -0.726328
-0.168198 -0.253663 1.57102 0.938568 -0.0507396 -0.0502145
-0.0772586 0.111311 -0.803951 0.849355 -0.174562 0.0605901
-1.14323 -0.428908 0.0250717 0.573557 -0.137796 -0.0774785
-1.19371 -0.400936 -0.538733 0.570241 -0.122836 -0.195319
1.15045 -0.173291 -0.0566477 0.55121 -0.0795895 -0.199014
-1.33862 0.163914 -0.345365 0.30972 -0.0318398 0.845312
-0.082834 -0.0833554 1.80133 0.591365 0.176622 -0.0274736
-0.598728 0.350991 -0.111635 -0.769497 -0.200297 -0.190323
-0.535716 -0.352526 0.00113653 0.921007 0.154203 -0.0469183
0.169682 -0.128542 -0.456937 0.91319 0.199894 -0.0467933
1.33269 -0.312151 -0.355454 0.714446 0.159698 0.261938
0.979378 -0.250419 -0.133442 0.649249 0.257799 0.192401
-0.511803 0.261916 0.0226793 0.650563 0.162262 0.130776
-0.169594 -0.0530857 1.33999 0.914356 0.0295274 -0.148247
0.0541381 -0.156783 1.17799 0.613127 0.10545 0.360132
-0.964914 -0.387662 -0.425793 0.34499 0.0407519 0.803481
-1.52383 -0.335846 -0.155497 0.249618 0.0329425 0.922219
0.0365046 -0.000789607 1.42179 -0.0154502 -0.121246 -0.673377
-0.117978 0.0616276 1.02809 0.0195906 -0.0549822 -0.688948
0.299889 0.308233 0.0461408 0.529423 0.247949 -0.626286
1.07201 -0.465039 -0.469444 0.818848 0.357372 0.020289
1.08285 0.192477 -0.158682 0.763702 0.41996 0.0516478
0.431553 -0.00468679 1.3569 0.634217 0.255565 -0.181081
-0.150359 0.581728 -0.373668 0.504076 0.206609 -0.201067
0.916611 0.127363 0.0817757 0.642344 0.377747 0.153877
-1.39682 0.360908 -0.18592 0.736118 0.337856 0.0475215
0.108354 0.0574632 1.09379 0.633276 0.435127 0.121138
-1.18683 -0.146696 -0.167504 0.299629 0.186373 0.792866
0.00188482 -0.219467 1.23745 0.244847 0.143294 0.880119
1.56198 -0.151483 -0.21783 0.269051 0.170612 0.836
-1.13525 -0.34885 -0.439067 0.33212 0.143941 0.786819
1.24388 -0.41509 -0.528105 0.331575 0.173482 0.767541
-0.217781 -0.00329447 1.46606 -0.615901 -0.463802 -0.21926
0.89415 -0.25373 -0.497414 -0.142287 -0.267012 -0.623462
-0.172934 0.0956733 -0.465934 0.577144 0.683314 0.0189344
0.203698 0.140381 1.40492 0.560823 0.667186 0.0551677
1.01467 -0.274589 -0.285402 0.706981 0.623485 -0.0569762
0.236696 -0.300525 1.64146 0.538417 0.53216 0.232315
-1.4758 -0.57796 -0.394801 0.44953 0.551357 0.22104
0.742113 0.388071 -0.427452 0.424673 0.355555 -0.199866
-1.0188 -0.297477 -0.488621 0.644755 0.521205 -0.160399
0.102408 0.0494726 1.00109 0.571896 0.491528 0.144882
0.301604 0.149786 1.41826 0.666954 0.554144 -0.0414314
-0.588579 -0.346245 -0.229211 0.211115 0.200094 0.873576
-0.54878 -0.365881 -0.346618 -0.311398 -0.706062 -0.21188
-1.09575 -0.444993 -0.307844 -0.279801 -0.471432 -0.445828
1.11611 -0.530754 -0.399923 -0.00497997 -0.103719 -0.669571
-0.230912 0.609784 -0.323711 -0.0715324 -0.245738 -0.633493
0.939186 -0.253142 -0.180029 0.351097 0.720433 0.161911
-0.212021 -0.281872 1.50221 0.327325 0.876981 -0.04319
1.27271 -0.537476 -0.343468 0.342433 0.721109 0.16703
-0.139054 -0.336618 -0.168638 0.254627 0.534238 -0.049241
-0.622046 -0.32293 -0.162784 0.282556 0.7018 0.136082
-0.606879 -0.366061 -0.426058 0.17569 0.315541 0.786386
0.100964 0.100317 -0.483444 0.180686 0.30889 0.791844
-0.287649 0.492792 -0.35076 0.126988 0.28802 0.841255
1.18766 0.438782 -0.203255 0.160191 0.306678 0.803969
0.170638 -0.436332 1.61816 -0.0630269 -0.636738 -0.349794
0.626048 0.253684 0.0789614 -0.0191197 -0.388074 -0.602817
-0.2464 -0.123079 -0.739505 0.0288828 0.509817 -0.742674
-1.22829 -0.377836 -0.421139 0.167637 0.924478 -0.0557045
0.606592 -0.318981 -0.0302313 0.149213 0.874421 0.0268915
-1.24946 -0.278654 -0.00444066 0.176221 0.837754 0.0780381
0.864598 -0.372551 -0.167665 0.0340529 0.693599 0.184273
-0.102628 -0.0367809 0.650906 0.194666 0.627298 -0.185403
0.136334 -0.346019 -0.390095 0.15538 0.898451 -0.12606
0.162727 0.0827022 1.44813 0.230843 0.866777 -0.0896889
0.0720091 -0.233315 1.45537 0.182562 0.764786 0.091047
1.13811 0.189371 -0.33062 0.103351 0.607435 0.370913
-1.61537 -0.0531913 -0.483123 0.0782487 0.809414 0.0393586
0.193712 0.18832 -0.466743 0.148035 0.565234 0.431575
0.387583 -0.07013 1.40906 0.0774226 0.344194 0.798719
-0.0523898 -0.145859 0.912871 0.0650952 0.362151 0.777133
1.28304 -0.361292 -0.20979 0.0193206 -0.940001 0.0426936
-0.216081 -0.00104935 1.60909 -0.0193 -0.897848 0.0663093
1.58361 -0.101904 -0.27007 0.0291782 -0.900369 0.0705592
0.0845541 -0.106914 -0.488452 -0.0199906 -0.948001 0.0324917
0.211706 0.0681096 1.3976 0.0110508 -0.919851 0.0552324
-0.0970763 0.0953155 1.56397 -0.00707535 -0.937041 0.0414472
-0.239068 -0.401012 -0.325218 -0.0636858 -0.881258 0.0720243
-0.894661 0.359331 0.0393041 -0.102555 -0.86734 0.0766182
-0.125282 0.205217 -0.438856 -0.0969056 -0.847788 0.0904621
-0.327414 0.0866889 1.60278 0.0237482 -0.936566 0.0455467
0.0749581 -0.000849941 1.30627 0.0292962 -0.902577 0.0690887
0.987133 -0.385817 -0.0899916 -0.054442 -0.885406 0.070368
0.434173 -0.234454 1.37279 -5.41332e-05 -0.939456 0.0406841
0.561273 0.0800651 1.34169 -0.0176242 -0.892141 0.0703534
1.47847 0.134281 -0.0523743 0.00188577 -0.961595 0.0260313
-1.18236 -0.510642 -0.392273 0.00536099 -0.956633 0.0297947
0.152275 0.0789854 -0.696438 -0.0676632 -0.880337 0.0721562
-0.385593 0.49792 -0.483685 -0.0454691 -0.90171 0.0605022
-0.100773 0.252381 -0.260799 -0.0101193 -0.945263 0.035544
-1.51297 -0.577617 -0.268775 -0.00201107 -0.911757 0.0590747
0.103115 -0.000193028 1.50792 -0.0596661 -0.920075 0.0464088
-0.172656 0.285527 0.0756301 -0.0224488 -0.941126 0.0368143
1.20026 -0.324893 -0.344699 -0.128827 -0.831467 0.0975247
-1.30698 0.248265 0.0805638 -0.00524114 -0.886404 0.0757309
1.39565 -0.152308 -0.267091 -0.074631 -0.869222 0.0787771
0.489919 0.24654 -0.0508968 -0.00288996 -0.92961 0.0469586
0.141934 -0.140371 1.608 -0.064394 -0.897581 0.0609586
1.45705 -0.407305 0.126113 0.0155169 -0.897112 0.0710745
-0.352575 0.00843299 1.58136 -0.0453276 -0.917496 0.0499021
1.5035 -0.5629 -0.264791 -0.0323714 -0.913299 0.0543136
0.00182976 0.156004 -0.797354 0.00346044 -0.970297 0.0203715
-0.0633676 0.213678 0.0537815 0.0379371 -0.926156 0.0542892
-1.60285 -0.179303 -0.55853 -0.0206703 -0.938076 0.0390839
0.250806 0.296133 0.0390331 -0.0102078 -0.935542 0.0420715
-0.000275453 -0.0296877 1.25382 -0.0756534 -0.852913 0.0896217
-1.28487 0.201454 -0.130809 0.0182483 -0.896857 0.0715812
-1.35292 -0.428517 -0.135883 0.207209 -0.75805 0.047273
-1.27224 0.327692 0.195873 0.243182 -0.738277 -0.0106621
-0.126537 0.0852547 -0.758454 0.199254 -0.728992 -0.160768
-0.0829815 -0.391244 1.6916 0.0211775 -0.886381 -0.0824829
0.36507 -0.327358 -0.358108 -0.0386409 -0.649517 -0.138426
0.154256 0.0788343 1.61356 -0.099469 -0.606624 -0.0924267
-0.00150952 0.0667472 1.42276 0.127981 -0.475158 -0.416102
0.184433 -0.0952807 1.62062 0.0825751 -0.355998 -0.427055
-0.329501 0.443302 -0.526714 0.0461644 -0.659378 -0.228509
-0.983194 -0.271027 -0.32509 -0.148242 -0.831264 0.079958
-1.14809 -0.176172 -0.565806 -0.187498 -0.783013 0.106271
-1.3198 0.311784 0.00808906 -0.120328 -0.85243 0.0798706
1.2932 -0.330456 -0.225666 -0.119435 -0.855832 0.0760069
-0.15307 -0.222044 1.65535 -0.0814566 -0.905659 0.0460931
0.944004 0.167613 -0.311906 -0.152348 -0.823541 0.0865017
-1.04934 0.359446 -0.388197 -0.135855 -0.827089 0.0991421
0.639182 0.323644 -0.0150258 -0.206602 -0.720793 0.170885
0.821087 -0.331392 -0.147476 0.156472 0.40906 0.558822
1.45602 0.235334 0.0360433 0.0442732 0.84304 0.148271
-0.0372327 -0.197371 -0.615001 0.0745671 0.709298 0.275019
-0.0428175 -0.0444948 1.03922 0.16312 0.389195 0.577535
-0.0665631 0.134838 1.11484 0.0756145 0.922334 -0.0108577
-0.0851872 -0.36656 -0.0766647 0.433468 0.211397 0.124051
-0.059029 -0.0572697 1.52003 0.00107651 0.997763 -0.0017706
-0.223939 0.155699 1.37195 0.00526558 0.989164 -0.00917694
0.416111 0.200787 -0.308137 0.00982584 0.975499 -0.0221527
1.30258 -0.218786 -0.166701 0.00684026 0.982215 -0.016203
-0.17468 -0.251747 1.57997 0.0131303 0.966592 -0.030419
-0.00306481 -0.150345 1.57662 0.00248737 0.992957 -0.00644532
1.35341 -0.325591 -0.265126 0.0354976 -0.197531 -0.0859151
0.106012 -0.179221 -0.470922 0.0303886 0.5601 -0.0751485
0.21812 -0.211692 1.35882 -0.0392461 0.912205 -0.00179779
-0.6545 -0.397352 -0.336332 -0.0346253 0.91457 -0.00576135
-1.17143 -0.439898 -0.282553 -0.0069861 0.915655 -0.0362482
-0.749203 -0.383819 -0.200807 -0.0161061 0.945537 -0.010498
-0.242758 0.068307 -0.681693 -0.0219614 0.902855 -0.0260668
0.475206 -0.399919 -0.40901 0.0147349 0.95145 -0.0420761
0.201023 0.0543722 -0.455695 -0.0662248 0.916479 0.0307277
0.322148 0.272679 -0.282594 -0.0341887 0.957319 0.0159296
0.300664 -0.151528 1.56403 -0.0552732 0.904156 0.0120307
-0.0491209 0.0477696 -0.8199 -0.0887036 0.894875 0.0447707
1.1221 0.206301 -0.511732 -0.480325 0.419109 0.307829
1.33447 -0.495347 -0.543163 -0.466343 0.43493 0.300423
0.33379 0.537492 -0.438459 -0.13164 0.842075 0.0827796
0.382661 0.38589 -0.600409 -0.249075 0.698981 0.159485
0.333207 0.26047 0.0524921 -0.217357 0.738685 0.137269
1.02561 -0.408737 -0.173446 -0.0403928 0.954175 0.0218775
-1.4694 0.371597 0.00295215 -0.47265 0.427613 0.30402
0.147931 0.0342828 -0.806833 -0.373922 0.549749 0.236925
-0.0695574 -0.255465 1.18623 -0.220904 0.737376 0.13531
1.28304 0.342068 0.218768 -0.0441033 0.950117 0.0236436
-1.11973 -0.367012 -0.0682165 -0.321347 -0.591168 0.184122
1.40211 -0.350272 -0.138833 -0.070955 -0.837134 -0.143351
-1.55123 -0.325823 -0.559241 -0.24847 -0.391595 -0.550532
0.459831 -0.149037 1.37144 -0.187182 -0.545444 -0.409919
0.127134 0.285119 0.0785766 -0.160246 -0.610058 -0.352002
-1.03031 0.207765 -0.353364 -0.370153 -0.0853735 -0.830698
1.40495 -0.380182 -0.150802 -0.136784 -0.672974 -0.292973
0.103389 -0.370775 1.66677 -0.275425 -0.320343 -0.617014
-0.136897 0.297472 -0.427985 -0.0608627 -0.858134 -0.125801
-1.48312 0.242315 -0.17897 -0.2888 -0.288219 -0.645823
0.353878 0.653702 -0.487352 -0.172498 -0.579678 -0.379627
-0.359305 -0.0771844 1.36769 0.0378551 -0.941448 0.0124777
0.156393 -0.00157951 1.25139 0.0776134 -0.906023 0.0387941
-0.31498 -0.418721 -0.512143 0.0407518 -0.899983 -0.00583227
-1.16543 0.408052 -0.0664035 -0.00233454 -0.9783 -0.0135818
-0.825382 0.294285 -0.104336 0.0142654 -0.967422 -0.000558657
-1.25538 -0.361267 -0.079481 -0.0107061 -0.921535 -0.052532
-1.57952 0.344323 -0.284274 0.0613037 -0.917903 0.0266191
-0.68381 0.333636 -0.107977 0.0695466 -0.915593 0.0447974
0.873022 0.219283 -0.414817 0.0980493 -0.88594 0.0562972
0.724131 0.352944 -0.509367 0.0644426 -0.921879 0.0413573
1.3278 0.2071 0.149597 0.082964 -0.895283 0.0591956
-0.336452 -0.0745505 1.45193 0.082261 -0.896423 0.0583333
-1.18732 -0.223481 -0.315196 0.0862097 -0.897723 0.0522765
-0.37993 0.597151 -0.366912 0.0200125 0.687202 0.207944
1.52742 0.309995 -0.0735812 0.0208104 0.737291 0.174163
1.19997 -0.500978 -0.343679 -0.263945 0.484636 0.378821
0.434482 0.638259 -0.463898 -0.109141 0.786225 0.157115
-0.46942 -0.396948 -0.405414 0.0659464 0.798493 0.127497
-0.212729 -0.110847 -0.469399 0.0132109 0.878346 0.0802337
0.117043 -0.000850904 1.38004 0.0631838 0.733101 0.171809
-1.13648 0.230902 -0.172212 0.0727673 0.801669 0.124529
-0.18803 -0.0561238 -0.489062 -0.164088 0.658429 0.249762
1.18454 0.48057 -0.224465 -0.0578298 0.888228 0.0822578
-0.0900872 -0.152426 -0.598542 0.0746309 0.831743 0.104077
0.414543 -0.00159732 1.52644 -0.00996285 0.66863 0.224092
-1.33892 -0.389181 -0.517591 -0.048343 0.865738 0.096224
0.0894917 -0.323266 1.47675 0.0220209 0.870823 0.0842173
0.0793569 -0.0774948 -0.772194 -0.0318158 0.853839 0.102209
-1.58614 0.346373 -0.190137 0.0277535 0.937327 0.0387951
1.21107 0.279701 0.0977425 -0.179378 0.61216 0.282742
-0.130438 0.000165473 -0.481028 0.103554 0.837873 0.0964253
0.0870765 0.303731 0.0952227 -0.0326289 0.766833 0.160818
0.373 -0.440476 -0.363686 -0.124353 0.676869 0.232511
-0.925879 -0.439795 -0.168354 -0.151115 0.671623 0.239306
-0.969467 0.329847 -0.0340024 -0.0247897 0.693618 0.209097
-0.424454 0.307476 -0.377092 -0.00703975 0.973159 0.0189449
-1.2857 0.386512 -0.114488 -0.133996 0.708703 0.212281
0.748597 0.280491 -0.314403 -0.231211 0.488973 0.371909
1.4913 -0.43033 -0.623005 -0.0727142 0.839939 0.116548
1.38995 -0.47049 -0.255113 0.27918 0.348745 0.574868
1.48759 -0.429683 -0.114976 -0.161996 0.557919 0.402021
1.54348 -0.323162 -0.270534 -0.266042 0.404996 0.488562
1.51278 0.126099 -0.250209 -0.845641 0.0883924 0.0913338
-0.187245 -0.0622858 1.19772 -0.879334 0.0645757 0.0159497
0.145243 0.289156 -0.0270931 -0.791922 0.118509 0.0210031
-0.175179 -0.0635902 1.359 -0.628236 -0.357603 -0.0732181
1.32122 -0.475053 0.0589954 -0.179174 0.541151 -0.42055
-0.445685 0.276662 -0.387151 -0.0207157 0.953668 -0.0408188
0.000582238 -0.0303942 1.38475 -0.197054 0.485738 -0.473492
1.19405 -0.498549 -0.430248 -0.185233 0.608995 -0.339859
0.0749888 -0.355656 -0.325947 -0.378512 0.0681407 -0.845928
0.0195937 -0.350209 -0.123723 -0.0470452 0.564996 -0.116537
-0.0454173 -0.0907087 0.843437 0.0479095 0.945946 0.0255135
0.241754 -0.337628 -0.0498896 0.0421648 0.952467 0.0224355
0.866792 0.268951 0.0885802 0.0947354 0.892788 0.0506037
0.66987 0.276826 -0.0912005 0.139097 0.842427 0.0743734
-0.258801 0.132207 1.3183 0.199513 0.773841 0.106745
-0.113192 0.068165 -0.474238 0.0764081 0.913594 0.0407836
0.107756 0.158663 -0.469154 0.170847 0.805495 0.0926409
0.368592 -0.218669 1.3186 0.0462612 0.947288 0.0253759
1.14802 -0.407459 -0.176425 0.172851 0.802142 0.0952403
1.52913 -0.174395 -0.384289 0.0833741 0.900626 0.0516705
-0.790997 0.17593 -0.177829 0.181336 0.631698 0.120572
0.906732 -0.304926 -0.425256 0.0215176 -0.95942 0.0298996
1.10943 0.0912593 -0.359853 0.0229374 -0.956708 0.0318984
0.601988 0.500801 -0.272668 0.0147437 -0.97238 0.0203536
-0.0775147 -0.0743708 1.23486 0.034298 -0.934991 0.0478996
-0.00135557 -0.207537 1.44243 0.0162016 -0.969591 0.0224079
-1.47108 0.556593 -0.0442967 0.0146659 -0.97252 0.0202479
0.688563 0.301056 -0.22538 0.00286753 -0.995087 0.00362442
-0.108889 -0.0340961 -0.773212 0.0141061 -0.973594 0.019458
0.972637 -0.279891 -0.38155 0.00308005 -0.994668 0.0039293
0.23508 -0.236143 1.6569 0.00820769 -0.984878 0.011146
-1.18068 0.159484 0.173009 0.0208657 -0.960665 0.0289821
1.4244 0.133891 -0.475561 0.0249862 -0.952791 0.0347842
-1.37802 0.316905 0.157359 0.0318193 -0.93973 0.044408
0.128533 -0.182746 1.32229 0.0196797 0.946895 -0.0491337
1.2588 0.268874 -0.146617 0.0174371 0.953018 -0.043434
-1.40894 -0.490487 -0.325852 0.029703 0.918699 -0.0755496
-1.26592 0.171275 -0.0960893 0.00927805 0.974532 -0.0235693
-0.144939 0.0952389 -0.466005 0.0248073 0.933136 -0.0618891
-1.07729 0.405768 -0.122166 0.0242756 0.933147 -0.0621793
-0.155263 0.44365 1.36671 0.0149595 0.959309 -0.0376785
-0.692205 0.335467 -0.0782398 0.0235159 0.936225 -0.0591058
0.0284395 -0.381937 -0.129604 0.0249385 0.931764 -0.0633775
0.0653267 0.136566 1.59687 0.0120827 0.967237 -0.0302844
0.684294 0.310332 -0.372865 0.00880071 0.975621 -0.0226009
-0.0817923 -0.227747 1.52035 0.00869281 0.976485 -0.0216784
-1.11902 -0.295168 -0.427629 0.0226205 0.938826 -0.0566519
-0.243112 0.268333 0.0986939 0.0277193 0.923801 -0.0708662
-0.487463 -0.443282 -0.493257 0.0135682 0.963059 -0.0341985
-0.987804 -0.36596 -0.202039 0.0121431 0.966093 -0.0315527
0.950066 -0.264357 -0.119599 0.00804305 0.977773 -0.0205805
-1.48008 0.330611 -0.192055 0.0196247 0.947611 -0.0483485
-1.62288e-05 -0.0089976 1.26945 0.0270392 0.926587 -0.0680793
0.911051 0.282541 0.0692958 0.0115022 0.969135 -0.0284516
1.00631 -0.440051 0.0222685 0.0307809 0.915502 -0.0785784
-0.594734 -0.382296 -0.490607 0.0223181 0.939983 -0.0555063
1.2082 0.241955 -0.0542078 0.0156398 0.957895 -0.0389021
0.223804 0.0378928 -0.721472 0.0272663 0.924869 -0.0699074
1.02215 0.170444 -0.185885 0.0211837 0.94225 -0.053569
1.37611 0.114083 0.0775355 0.016481 0.955483 -0.041171
0.0792039 0.291376 0.133327 0.0110439 0.969402 -0.0284085
0.00684052 -0.424453 1.57244 0.0208857 0.943669 -0.0521225
0.760323 0.278932 0.00555919 0.0105716 0.970859 -0.0270184
0.177584 -0.033882 -0.597204 0.0178546 0.951465 -0.0449657
-1.17634 -0.184436 -0.375699 0.0202418 0.946241 -0.0495583
-0.0429061 -0.0415415 1.05299 0.0147322 0.959928 -0.0371028
-0.808058 -0.392298 -0.535246 0.00336154 0.990558 -0.00867999
-1.23689 0.174483 -0.194908 0.0324783 0.910609 -0.0831863
1.46086 0.487824 0.102382 0.0204128 0.944236 -0.0517453
1.15743 -0.289187 -0.289794 0.00715639 0.979721 -0.0188665
-0.104307 -0.150663 -0.377831 0.0309715 0.915202 -0.078812
-1.02664 -0.25588 -0.121288 0.0167125 0.955784 -0.0406959
0.653904 0.284809 -0.160848 0.00828157 0.977371 -0.0209026
0.136465 -0.198882 1.36268 0.0260147 0.929484 -0.0653627
0.370127 -0.087746 1.65458 0.0195646 0.948425 -0.0474553
0.290781 -0.0743086 1.30576 0.0214973 0.943366 -0.0521185
0.774665 0.230946 -0.0915008 0.0198824 0.947536 -0.0482878
-1.0532 -0.24337 -0.0848602 0.01801 0.952511 -0.0436854
-0.0538396 0.171566 -0.444363 0.0224708 0.940129 -0.0552522
0.0905604 -0.00178943 -0.839744 0.0195979 0.946693 -0.0494098
0.580159 0.271462 0.0965386 0.0127412 0.966224 -0.0310631
-0.19661 0.25779 -0.135665 0.0148869 0.954929 0.0424481
-0.354692 -0.355098 -0.0566371 0.00965765 0.970455 0.0278256
-1.29999 0.226083 -0.180715 0.00478142 0.984932 0.0141968
0.0670331 -0.137111 1.54813 0.00466489 0.985277 0.0138723
-1.09218 0.142668 -0.0403498 0.0199066 0.940024 0.0564871
0.521269 -0.428335 -0.449177 0.00210365 0.992883 0.00670834
0.121982 -0.0588146 1.43243 0.00310087 0.989925 0.00948656
0.155005 -0.0739402 1.70649 0.00410893 0.986929 0.0123156
-0.794904 -0.388832 -0.0760496 0.0151337 0.954195 0.0431421
-0.221977 -0.366505 -0.271917 0.0018419 0.99366 0.00597799
-1.44928 0.309545 -0.329072 0.00163121 0.994286 0.00538509
0.526409 -0.367664 -0.5494 0.00234516 0.992169 0.0073722
0.443121 0.228572 0.0180861 0.00284239 0.990691 0.00876879
-1.13511 0.164536 -0.362702 0.00193718 0.993377 0.00624504
-1.38185 -0.58186 -0.410321 0.000446708 0.997804 0.00207097
-0.0818225 0.042772 0.973596 0.0134216 0.959279 0.0383524
-0.428672 0.202801 -0.108746 0.0152364 0.95389 0.0434287
0.924318 -0.370443 -0.423805 3.3476e-05 0.999033 0.000908947
-0.107874 0.159237 1.13706 0.0122312 0.962814 0.0350229
-0.0031303 0.236391 1.39191 0.30466 -0.168415 -0.773694
1.01575 -0.322327 -0.332641 0.200954 -0.452621 -0.509092
-0.166047 -0.346364 -0.0694422 0.182644 -0.504241 -0.460735
-0.887254 -0.411781 -0.50761 0.173437 -0.528814 -0.437993
0.811625 0.336619 -0.0145222 0.223934 -0.389952 -0.567375
0.190257 0.11744 -0.465916 0.0279067 -0.928291 -0.0659371
0.113677 0.252957 -0.171061 0.0393691 -0.893614 -0.0988994
-0.102081 0.215655 0.18303 0.307217 -0.16148 -0.780136
0.262266 -0.125965 1.42618 0.0573829 -0.847285 -0.141403
-1.24883 0.315756 -0.120608 0.185932 -0.493777 -0.470779
0.25866 0.067747 1.29133 0.0556414 -0.852179 -0.136821
1.32542 0.315049 0.04448 0.165392 -0.549332 -0.419208
0.180373 -0.0890426 1.61072 0.282111 -0.230315 -0.716043
0.511574 0.271505 -0.185759 0.30639 -0.16424 -0.777464
-0.61416 -0.383118 -0.16201 0.0583609 -0.842703 -0.146064
-0.536621 0.312396 -0.00900629 0.111477 -0.696607 -0.282191
-0.339006 -0.393523 -0.0392139 0.0510791 -0.861807 -0.128454
0.773825 -0.346302 -0.0339695 0.083862 -0.775733 -0.207809
1.26786 -0.535883 -0.507975 0.247585 -0.325274 -0.627564
0.847846 0.181466 -0.0850109 0.162068 -0.560557 -0.408318
-0.0945286 -0.00204781 -0.833994 0.219475 -0.402998 -0.555057
0.0507502 0.299849 -0.428238 0.155973 -0.575825 -0.394401
1.23171 0.39835 -0.044777 0.169136 -0.540313 -0.427347
-1.24293 0.227223 -0.0373542 0.334191 -0.0874791 -0.849049
-0.73929 0.355066 -0.172549 0.100436 -0.726681 -0.25423
1.03687 -0.293452 -0.412739 0.0289641 -0.922058 -0.072433
-1.54177 -0.195912 -0.502362 0.0350479 -0.906203 -0.0870243
-0.322176 -0.34831 -0.12746 0.253591 -0.309554 -0.642045
1.54441 -0.383804 -0.443342 0.0242719 -0.937352 -0.0576883
0.000505322 -0.0734353 1.0429 0.0233866 -0.937821 -0.0576575
0.711646 0.333878 -0.452419 0.205742 -0.44078 -0.519852
0.387243 0.296107 -0.192234 0.0784003 -0.79022 -0.194421
-0.203804 0.0689624 1.54553 0.0434755 -0.886512 -0.10465
1.56487 0.313315 -0.110899 0.0925254 -0.750472 -0.231642
-0.151768 0.0677394 -0.302283 0.085189 -0.768617 -0.215155
0.0497079 0.287138 -0.755072 0.310688 -0.151736 -0.789256
-0.0265342 0.000147367 -0.610441 0.029361 -0.92432 -0.0696322
-0.437155 0.00416268 1.50105 0.281255 -0.232129 -0.714464
-0.060372 -0.153698 0.629994 0.0261734 -0.930124 -0.0648369
-0.373152 -0.148955 1.3761 0.0469504 -0.874241 -0.116645
-0.114263 -0.359305 0.0433461 0.0349071 -0.908076 -0.0849714
1.41563 -0.282119 -0.0834586 0.0572496 -0.848452 -0.14015
-0.270345 0.54671 -0.378176 0.136472 -0.629123 -0.34481
-0.0681715 -0.375579 -0.163957 0.149158 -0.596147 -0.37514
-0.862859 -0.389719 -0.109246 0.0281736 -0.927724 -0.0664316
0.381275 0.249277 -0.11692 0.0655423 -0.826646 -0.160261
1.13353 -0.273591 -0.390287 0.0466106 -0.875328 -0.115601
1.2035 0.166698 -0.240657 0.188186 -0.489391 -0.47449
1.17928 -0.329499 -0.10478 0.072909 -0.805226 -0.180459
0.0707672 0.13584 1.45414 0.0833095 -0.777679 -0.205908
0.146047 0.209575 1.58308 0.160037 -0.563784 -0.4058
-1.37602 0.300736 -0.257433 0.147779 -0.597316 -0.374594
-0.190902 -0.0941314 1.67389 0.333386 -0.0897183 -0.846957
0.469861 0.196109 -0.356072 -0.150754 -0.622 -0.344684
0.195575 0.024771 -0.464939 -0.0518722 -0.869687 -0.118993
0.13664 0.131158 1.60513 -0.132437 -0.672674 -0.297425
-1.19907 0.0744981 -0.131986 -0.0215543 -0.943736 -0.0519495
-0.03631 0.22187 0.063114 -0.0887446 -0.778304 -0.20204
-1.56402 0.178643 -0.134269 -0.182771 -0.546919 -0.411939
1.21465 0.425923 -0.330968 -0.0997687 -0.750443 -0.227482
-1.19029 0.19208 -0.0335069 -0.125426 -0.690372 -0.281268
-0.665094 -0.466776 -0.374334 -0.284337 -0.295581 -0.64026
0.179325 -0.0638131 -0.600924 -0.0452459 -0.887785 -0.102163
1.26647 -0.19407 -0.0487181 -0.264928 -0.345044 -0.594998
-1.24881 0.357258 -0.066602 -0.175261 -0.562524 -0.398445
0.0712731 0.104849 -0.78563 -0.126403 -0.681625 -0.290665
-0.626852 -0.385497 -0.249164 -0.0503313 -0.875943 -0.11275
0.00069712 -0.0997637 0.908712 -0.204853 -0.491484 -0.462478
-1.33715 -0.44187 0.0571003 -0.153188 -0.615637 -0.350543
-0.0210496 -0.362231 0.00272571 -0.35624 -0.119045 -0.800309
-1.37349 0.167568 -0.45013 -0.143881 -0.643643 -0.323961
-1.19516 -0.4968 -0.262947 -0.199405 -0.503083 -0.452373
0.00345718 -0.214629 1.7653 -0.13402 -0.665554 -0.304627
-0.0818494 -0.35718 -0.0629116 -0.0469123 -0.879078 -0.111123
0.640235 0.304592 -0.0829973 -0.0900825 -0.775977 -0.203928
-0.178707 -0.0750639 -0.457792 -0.0771518 -0.802061 -0.181588
1.32826 0.368574 0.0560073 -0.243216 -0.398242 -0.546793
-0.00127954 0.102771 0.688159 -0.0735418 -0.813467 -0.17066
-0.167893 0.231811 -0.435252 -0.0328859 -0.910793 -0.0829996
0.251378 0.0783627 1.47815 -0.113877 -0.718463 -0.255861
0.897507 -0.433735 -0.337598 -0.245004 -0.393245 -0.551464
0.693109 0.244664 -0.240266 -0.382678 -0.0541617 -0.859127
0.15986 -0.0253452 0.48155 -0.099709 -0.75132 -0.226518
-0.786517 0.310297 -0.192803 -0.161377 -0.600596 -0.363009
-0.16321 -0.0773317 1.71559 -0.257584 -0.361248 -0.580729
-0.000511861 0.147614 1.61046 -0.0587588 -0.847752 -0.140041
0.0337314 -0.158351 -0.587209 -0.0837112 -0.792791 -0.188414
-1.27113 0.348693 -0.0690034 -0.0871955 -0.780775 -0.200107
0.000245964 -0.0231387 1.15948 -0.137653 -0.656331 -0.313058
-1.59136 0.339865 -0.233085 -0.30602 -0.241618 -0.689351
0.042243 -0.367493 -0.168212 -0.298866 -0.259558 -0.673
-1.03195 -0.520736 -0.156569 -0.086238 -0.779896 -0.20165
-1.501 -0.263264 -0.404152 -0.219685 0.41602 -0.540028
1.17352 -0.356996 -0.447071 -0.246624 0.344506 -0.60616
-1.06513 -0.353662 -0.122179 -0.0256783 0.931051 -0.0637592
1.29067 0.288002 -0.425821 -0.0133975 0.963656 -0.0336084
0.896963 0.173777 -0.14866 -0.161041 0.571703 -0.396062
-0.20843 0.00364472 1.62998 -0.306816 0.184712 -0.753927
0.143886 0.108376 -0.741313 -0.210117 0.441421 -0.516539
3.92972e-07 -0.092766 1.66749 -0.191672 0.490385 -0.471259
0.0603865 0.0599158 1.21269 -0.159224 0.576523 -0.391604
-0.298915 -0.360953 -0.122899 -0.262818 0.301513 -0.645916
-1.36557 -0.272336 -0.17277 -0.171478 0.543993 -0.421686
-0.796973 -0.283551 -0.364252 -0.300379 0.201801 -0.738124
-1.55008 -0.487456 -0.307024 -0.267975 0.287822 -0.658577
0.133749 0.289633 0.0876769 -0.186708 0.503565 -0.459072
-0.816722 -0.306061 -0.0847495 -0.181396 0.517665 -0.446033
-0.230795 0.0819965 1.58157 -0.140897 0.625178 -0.346612
-0.0223225 -0.342262 -0.312104 -0.145232 0.61367 -0.357254
-0.163259 0.00357774 1.36556 -0.112162 0.701461 -0.276069
-0.121896 0.255008 -0.499548 -0.108914 0.710084 -0.268096
-0.895363 0.276713 -0.547471 -0.0881926 0.765095 -0.217225
1.46227 -0.359967 0.0568053 -0.196725 0.476971 -0.483664
-0.672844 0.369817 -0.0141998 -0.0499332 0.866657 -0.123306
-0.0247261 -0.133818 -0.490771 -0.202164 0.462532 -0.497017
0.0469477 0.0471987 -0.818157 -0.129888 0.654407 -0.319583
0.346106 -0.378901 0.0186417 -0.0518568 0.861558 -0.128023
1.49511 0.254482 -0.103922 -0.0399327 0.893205 -0.098756
0.276573 0.249006 0.0489019 -0.252612 0.328607 -0.620862
-1.16571 0.240053 0.0220291 -0.0486889 0.86996 -0.120252
-1.31354 -0.371857 -0.365317 -0.0801584 0.786419 -0.197506
-0.144124 -0.110032 -0.655615 -0.0539154 0.856089 -0.133079
1.53985 0.293278 -0.354939 -0.0289155 0.922459 -0.0717052
0.109778 0.251274 -0.310216 -0.0464825 0.875824 -0.11483
-1.54059 -0.313099 -0.275816 -0.184031 0.51067 -0.452501
0.737315 0.199506 -0.286408 -0.0109739 0.970088 -0.0276605
1.14337 -0.515885 -0.22149 -0.173016 0.539912 -0.42546
0.468396 -0.357596 -0.099442 -0.0641255 0.828987 -0.158142
0.000138694 -0.0983201 1.54865 -0.231342 0.385074 -0.568645
0.221126 -0.0785991 1.59484 -0.222812 0.407719 -0.547704
-1.0111 -0.333228 -0.108868 -0.00463653 0.98691 -0.0121043
-0.82696 0.366655 -0.0690632 -0.0496996 0.867282 -0.122729
-0.129977 -0.0751318 -0.484853 -0.22912 0.390975 -0.563188
1.5076 0.241379 -0.0976122 -0.200462 0.46705 -0.492838
-0.26008 0.250808 -0.299927 -0.038334 0.897451 -0.0948304
0.426088 0.479893 -0.372825 -0.2215 0.411203 -0.544482
0.38618 0.277232 -0.439252 -0.107099 0.714904 -0.263639
1.27063 0.289394 0.180227 -0.301155 0.199741 -0.740029
-0.144897 0.182263 0.674928 -0.164218 0.563266 -0.403864
1.4165 0.465984 -0.176237 -0.0540546 -0.879671 0.0987757
1.40698 -0.327481 -0.164542 -0.00377767 -0.992203 0.00641069
-0.0534629 0.000588984 0.937872 -0.048328 -0.892489 0.0882542
-0.181939 0.322864 -0.442783 -0.304089 -0.32001 0.558189
-0.155395 -0.232765 1.51989 -0.193149 -0.568329 0.354354
0.809547 -0.373189 -0.0974392 -0.0962734 -0.785171 0.17635
1.33421 0.246929 -0.534798 -0.19299 -0.568687 0.354054
-0.172328 -0.0868256 1.53767 -0.0917643 -0.79526 0.168076
1.06785 -0.272614 -0.108898 -0.290556 -0.350302 0.53332
0.98695 -0.29482 -0.475489 -0.235843 -0.472767 0.432797
0.0692464 0.284989 -0.674855 -0.0944548 -0.789238 0.173019
0.432733 -0.32366 -0.532897 -0.0265415 -0.941252 0.0482312
0.243732 0.307609 -0.219519 -0.146433 -0.672898 0.268511
0.151292 -0.0029539 1.47861 -0.366855 -0.179521 0.673509
-0.77055 -0.333618 -0.586539 -0.277358 -0.379844 0.509071
-1.03616 0.203768 0.00490377 -0.158566 -0.645738 0.290809
0.182753 0.326638 -0.228159 -0.119664 -0.732813 0.219332
-0.199863 0.0653865 1.31666 -0.0848677 -0.8107 0.155396
1.42215 -0.293989 -0.0124666 -0.310599 -0.30544 0.570148
-1.50519 0.426829 -0.327577 -0.148145 -0.669066 0.271656
0.0826909 0.291571 0.117559 -0.126805 -0.716829 0.232457
0.000904675 -0.0512869 0.943156 -0.047381 -0.894607 0.0865192
-0.384978 0.274025 0.058639 -0.0509765 -0.886557 0.093133
0.213525 -0.0709337 1.50527 -0.0497359 -0.889336 0.0908449
1.39581 0.316274 -0.313234 -0.0419008 0.919591 0.0592239
0.337399 -0.00762862 1.45857 -0.161567 0.691556 0.227177
1.08991 -0.513676 -0.469994 -0.200089 0.618145 0.281246
0.0324011 -0.0320965 -0.827156 -0.0200837 0.96117 0.0285994
1.46305 -0.380857 -0.0259465 -0.234735 0.552124 0.329872
0.133083 -0.300388 -0.576429 -0.00748386 0.985178 0.0109176
0.62371 0.0045072 1.51351 -0.228558 0.563896 0.321202
0.828703 0.306821 0.112542 -0.14329 0.726383 0.201526
-0.0444924 0.0440221 -0.801832 -0.0015702 0.99645 0.00261475
-1.28528 0.241462 -0.0537464 -0.0818266 0.843505 0.115264
-1.10233 -0.346682 -0.54095 -0.126466 0.758442 0.177914
1.48832 -0.199616 -0.275074 -0.0272057 0.947588 0.0386051
-1.20806 -0.381101 -0.243027 -0.0751221 0.856285 0.10585
-0.298955 -0.351931 -0.153756 -0.0507553 0.902718 0.0716513
-1.27733 0.231436 -0.154496 -0.0229872 0.955625 0.0326855
1.5599 -0.131958 -0.461245 -0.287225 0.4521 0.403542
0.925434 0.2606 -0.327032 -0.223222 0.574063 0.313714
1.3265 0.316058 0.00659321 -0.181058 0.654413 0.254534
-1.25941 0.386102 -0.230116 -0.069422 0.867145 0.0978521
-0.0874948 -0.371797 -0.126623 -0.0165575 0.967878 0.0236613
0.220344 0.117212 -0.700005 -0.0499995 0.904158 0.0705903
-0.110921 -0.0573189 1.08316 -0.0681999 0.869469 0.0961415
1.37903 0.333621 -0.0561032 -0.181852 0.652897 0.255651
-0.205342 0.313898 -0.395487 -0.19988 0.618547 0.28095
0.101737 -0.0343274 -0.768605 -0.0691506 0.867664 0.097469
0.375965 0.250261 -0.131164 -0.0458272 0.912105 0.0647388
0.427495 0.268153 0.0830776 -0.125119 0.761009 0.176023
-1.22879 -0.265677 -0.539764 -0.0364211 0.930036 0.0515304
-1.50758 0.352505 -0.237882 -0.103622 0.801972 0.145854
-0.299152 0.519847 -0.386378 -0.00325548 0.993232 0.00498579
0.08006 0.00010829 -0.709279 -0.221101 0.578103 0.310738
1.5741 -0.407714 -0.134813 0.0977564 -0.670115 0.298228
-0.856231 0.185709 -0.151089 0.014057 -0.774686 0.204129
-1.32685 0.431261 0.143927 0.076129 -0.607567 0.36321
-0.902503 0.269021 -0.45046 0.131017 -0.416927 0.546613
1.33769 0.420135 -0.124018 0.0522369 -0.689279 0.284645
-0.873379 0.221514 -0.231883 0.0560433 -0.744203 0.229425
-0.222292 -0.221004 1.55209 -0.0825189 -0.844693 0.117436
-1.11317 0.237079 -0.178847 -0.0447156 -0.860233 0.11231
-1.38495 -0.365123 -0.133606 -0.00872367 -0.877704 0.0917882
0.406357 0.468285 -0.38298 -0.0379549 -0.863028 0.111299
-1.19484 -0.0762244 -0.401852 -0.05431 -0.859379 0.0955467
-0.674734 -0.0869701 1.50744 -0.0727842 -0.850456 0.105821
1.55164 0.18169 -0.180398 -0.074788 -0.852145 0.0914065
-0.0314711 0.511353 -0.437134 0.168328 -0.780534 -0.0175761
-0.0217205 -0.359977 -0.309074 0.0165199 -0.958112 -0.0384609
1.31041 -0.290208 0.145064 0.0194652 -0.950507 -0.0454441
0.382828 -0.340158 0.0204062 0.0158838 -0.959759 -0.0369473
0.00339533 -0.184523 1.24851 0.0179175 -0.954505 -0.041773
0.64918 0.262717 -0.276104 0.0180127 -0.954264 -0.0419935
0.170944 -0.369525 -0.488635 0.00349617 -0.991745 -0.00757563
1.41167 -0.599017 -0.442307 0.00881309 -0.978006 -0.0201936
1.30005 -0.223108 -0.00235386 0.0119217 -0.969986 -0.0275571
-0.638588 0.278359 -0.190941 0.0158761 -0.959767 -0.0369428
1.00541 0.438054 -0.0374373 0.0280863 -0.928252 -0.0658797
0.157049 0.108543 -0.466281 0.007262 -0.981995 -0.0165334
-0.669908 0.286774 -0.234324 0.0306235 -0.921701 -0.0718958
0.750673 0.337669 -0.0860588 0.0145237 -0.963267 -0.0337264
-0.865747 0.167593 0.0147374 0.00144632 -0.997032 -0.00272128
-1.42298 -0.450144 -0.30397 0.0128832 -0.96749 -0.0298513
1.20633 0.38203 0.0561003 0.0152141 -0.961482 -0.035367
-1.11083 -0.406982 -0.37845 0.0221075 -0.943682 -0.0517122
-1.19756 -0.251321 -0.443608 0.0207533 -0.947187 -0.0484915
-0.30057 0.147636 1.63012 0.0112658 -0.971666 -0.0260166
-1.174 -0.476434 -0.319633 0.0157227 -0.960172 -0.0365684
1.32269 -0.488187 -0.630786 0.0126851 0.9557 0.0418243
-1.01842 0.263215 0.108496 0.0102432 0.968653 0.0295221
0.116987 0.0599465 1.37508 0.0185179 0.915794 0.0798123
-0.912487 -0.423864 -0.505197 0.0246767 0.896816 0.0976997
0.504091 0.311393 -0.318806 0.0168827 0.923373 0.0726247
1.13004 0.400802 -0.145551 0.0369173 0.83953 0.152028
0.284094 -0.0783305 1.49283 0.029447 0.885788 0.10803
0.31434 -0.0593768 1.30016 0.0120045 0.952808 0.0446348
1.06864 0.0961561 -0.287263 0.0237729 0.913332 0.0818969
0.0885965 -0.25629 1.56739 0.0136281 0.943928 0.0530708
1.0406 -0.428432 -0.284381 0.0165941 0.948399 0.0486242
0.14123 0.246171 -0.257492 0.0298678 0.869689 0.123458
-1.17546 0.306358 0.24765 0.0157152 0.9471 0.0499173
1.14923 -0.159791 -0.128628 0.0076984 0.964643 0.0335047
0.335207 0.608229 -0.583573 0.0175731 0.925607 0.070445
-0.000267844 -0.0115498 1.52976 0.0280455 0.887802 0.106171
-0.107835 0.266682 -0.610806 0.0205252 0.913867 0.0815558
0.000656432 0.0281521 1.60975 0.020408 0.92599 0.069928
-0.200535 -0.0690134 1.20471 0.0255866 0.902452 0.0922423
0.0422558 0.117529 -0.745256 0.0149013 0.949012 0.0481246
0.580442 -0.345816 -0.0518988 0.0158755 0.946363 0.0506159
-0.437407 0.362054 -0.367038 0.023402 0.91447 0.0808252
-0.820361 0.397855 -0.0876136 0.030711 0.876725 0.116661
1.19057 0.29931 -0.14722 -0.0884732 0.783906 0.150689
0.66812 0.337349 -0.262897 -0.293334 0.593718 0.232779
-0.15635 0.0410443 -0.819877 -0.58571 0.271181 0.393855
0.5361 0.290618 -0.179951 -0.201628 0.667245 0.20601
-1.29794 0.316503 -0.20626 -0.245579 0.622522 0.226991
-0.242244 0.00414514 1.5105 -0.566951 0.260382 0.410586
1.18394 0.269238 -0.190754 0.0176367 0.892053 0.0998885
0.175344 0.00225358 1.41712 -0.456948 0.348518 0.378529
-0.331756 -0.289714 -0.289042 -0.263962 -0.385028 0.544231
-0.000260823 0.044925 0.872117 -0.100672 -0.783839 0.182266
-8.72127e-05 0.00621043 -0.782238 -0.369732 -0.143156 0.758183
-0.452957 -0.424562 0.00583294 0.186522 -0.193943 0.613479
-0.268363 0.305734 0.093418 0.0656267 0.434414 0.198111
0.100102 0.190466 -0.332051 0.235478 -0.0974961 0.800281
0.000278636 -0.0679566 1.34228 0.364905 0.616873 0.102258
-0.337428 0.557711 -0.27983 0.503329 -0.488033 -0.0291106
1.31559 0.362704 -0.13261 0.00129133 0.997421 -0.00203374
1.60893 -0.291757 -0.086763 0.000281711 0.999064 -0.000733017
0.210845 -0.00402864 1.62134 0.00269889 0.995129 -0.00384029
1.05122 0.346577 0.167192 0.000249968 0.999117 -0.000699436
-1.38021 -0.276162 -0.279967 0.0037338 0.993444 -0.00517043
0.807777 0.299664 -0.274462 0.000754059 0.998296 -0.00134437
-0.949364 -0.25628 -0.318727 0.000517368 0.998681 -0.00103847
0.000796876 -0.121112 0.762244 0.0042975 0.992526 -0.00589414
1.39652 -0.301894 -0.18975 0.00173199 0.996704 -0.00259995
-0.293762 0.0398664 -0.793518 0.000517994 0.998681 -0.00104206
0.624223 -0.268848 -0.139365 0.000159783 0.999263 -0.000578825
0.0637468 0.526814 -0.416641 0.000896895 0.998062 -0.00152205
0.110714 0.0528632 0.932482 0.000764299 0.998279 -0.00135809
1.14851 0.247583 0.114619 0.00292355 0.994764 -0.00413128
-0.138686 0.237655 -0.459813 0.000385061 0.998897 -0.000872157
0.088932 -0.39108 1.45886 0.00197368 0.99631 -0.00290821
-1.08666 0.301325 0.102998 0.000731638 0.998332 -0.0013121
-0.748269 -0.315881 -0.265141 0.000843832 0.998149 -0.00145599
0.547242 -0.392843 -0.315639 0.00289005 0.994818 -0.00408798
-1.18273 -0.102401 -0.431444 0.00369817 0.993502 -0.00512495
-1.52231 0.364386 -0.0580624 0.00368459 0.993525 -0.00510783
-0.135762 0.202727 0.423199 0.000797984 0.998223 -0.00139583
-0.139427 -0.0916813 0.848395 0.00160199 0.996915 -0.00243119
-0.994795 0.34206 -0.325036 0.00247668 0.995491 -0.00355528
0.359291 -0.394043 -0.382698 0.205853 0.0875829 -0.162606
-1.06713 0.193603 -0.497246 0.291166 -0.176079 -0.738369
-0.533335 -0.388049 0.0136164 0.0649841 0.190736 -0.163018
-1.37955 0.221925 0.143714 -0.292336 -0.228385 0.656433
1.1117 -0.378675 -0.479916 -0.261181 -0.285809 0.611701
0.0482372 0.217196 -0.035729 -0.146658 -0.241639 0.706657
0.108112 0.000240645 1.23402 -0.151659 -0.334008 0.610604
-0.0277253 0.0572668 -0.615842 -0.22565 -0.27039 0.642903
-0.149439 -0.0531528 1.00307 -0.0487786 -0.718816 0.264543
0.86075 0.361171 -0.268418 -0.308229 -0.0160527 0.865257
-1.37543 0.194568 -0.0981088 -0.328929 -0.0981452 0.772784
1.28465 0.198698 0.0660629 -0.0870347 -0.66066 0.306915
1.44332 0.202375 -0.080462 -0.258697 -0.247732 0.651481
0.31992 0.566817 -0.542035 -0.0635712 -0.841388 0.133518
-0.420144 -0.0762987 1.34149 -0.167233 -0.377963 0.559128
-0.0654468 -0.000926837 0.827671 -0.253538 -0.280627 0.620308
1.28067 0.713198 -0.0985223 -0.154607 -0.622029 0.316629
0.782817 -0.354409 -0.00293371 -0.349852 -0.159547 0.70124
-1.17627 -0.290388 -0.227028 -0.320131 -0.0899561 0.784953
-1.31908 -0.400751 -0.482155 -0.185771 -0.37708 0.551921
-0.084513 -0.184063 -0.472554 -0.146744 -0.326745 0.620134
-0.892955 -0.435081 -0.347711 -0.162369 -0.238829 0.702643
1.12486 -0.414334 -0.68248 -0.308728 -0.096052 0.783744
0.550042 0.269491 0.0672709 -0.0863329 -0.71281 0.254227
-0.907264 -0.353315 -0.0767605 -0.0949142 -0.73644 0.226463
-0.0733846 0.199241 -0.440248 -0.284628 -0.157202 0.73214
0.624341 -0.278294 -0.131077 -0.190199 -0.130539 0.80052
0.0342868 0.000223475 -0.838193 -0.101288 -0.644617 0.316987
-0.408798 -0.332375 -0.0271728 -0.109484 -0.373405 0.589009
-0.523308 -0.333765 -0.139909 -0.21707 -0.230399 0.687294
-0.0337448 0.0962885 -0.70423 -0.191566 -0.06694 0.864551
-0.0329085 0.0655991 0.704168 -0.13791 -0.183134 0.769934
0.288794 -0.144699 1.31969 -0.162024 -0.134317 0.808998
0.171314 -0.00344715 1.67114 -0.178447 -0.299756 0.6337
0.435887 0.366049 -0.346498 -0.236577 -0.340284 0.5671
0.0742623 -0.20776 1.51245 -0.144107 -0.143065 0.807943
-0.294197 -0.0748296 1.38299 -0.162813 -0.00832361 0.936688
0.588588 -0.320566 -0.243522 -0.280427 -0.22053 0.669623
0.645458 -0.307519 -0.44095 -0.376393 -0.0352554 0.815941
1.19038 -0.414842 -0.332718 -0.320301 -0.146761 0.727153
0.481505 0.309879 -0.189685 -0.0453296 -0.52038 0.446189
0.120523 0.0795795 0.846668 -0.0556624 -0.449264 0.513818
