1.5278 -0.259374 -0.248335 0.0310055 0.990081 -0.0603837
0.154077 -0.299496 -0.126683 0.0813675 0.983768 -0.00073101
-1.01945 -0.278776 -0.343487 0.0594479 0.912199 -0.325393
-0.171112 0.118247 -0.541317 0.11844 0.901544 -0.329115
0.533735 -0.240581 -0.269034 0.0558521 0.913835 -0.320961
0.167919 -0.087577 -0.563979 0.209539 0.935984 -0.117723
0.00648887 0.312715 1.78418 0.181276 0.727861 -0.550327
-0.156011 -0.0450302 -0.219656 0.0907121 0.658348 -0.663918
0.0894012 -0.216038 -0.386663 0.130021 0.379235 -0.71083
-0.136771 -0.0227927 -0.402774 0.0505914 -0.206438 -0.789541
-0.814934 -0.228118 -0.308299 0.125317 0.342677 -0.716555
1.38721 0.382173 -0.107493 0.0635421 -0.148343 -0.797928
0.148391 0.151679 -0.413978 0.0190049 -0.729437 -0.406053
-1.14676 0.36015 -0.16805 0.0477157 -0.673182 -0.451479
0.408286 -0.553106 -0.35745 0.0152727 -0.918587 -0.258364
1.45497 -0.311922 -0.071141 0.0136677 -0.944866 -0.237786
0.126493 0.427136 -0.409867 0.112856 -0.969916 -0.0124324
0.150208 -0.0754124 -0.457783 0.0550997 -0.990586 0.061464
-0.917041 -0.272306 -0.0838022 0.130882 -0.97963 0.0520656
-0.209976 0.353165 -0.179853 0.00982068 -0.99647 0.0624765
0.471642 -0.302108 -0.208739 0.134682 -0.979473 0.0543265
0.196266 0.0356167 -0.75976 0.142354 -0.978918 0.0572335
1.48973 0.37822 -0.19595 0.123862 -0.983669 0.059266
-0.0459566 0.176896 -0.250242 0.0481334 -0.993152 0.0556668
1.45936 0.36004 -0.232939 0.128156 -0.981548 0.0610985
0.277192 -0.539715 -0.410324 0.119832 -0.983065 0.0602153
-0.733663 -0.25948 0.122296 0.0622327 -0.994093 0.0534908
0.127553 0.0483056 0.258782 0.0517326 -0.993832 0.0542394
-0.165454 0.401178 -0.18975 0.0654511 -0.994354 0.053116
0.153415 -0.0237538 0.0327445 0.0810375 -0.990979 0.0550242
1.44716 0.392379 -0.210133 0.0780746 -0.992711 0.0537864
-0.0420086 0.155949 0.744182 0.0380089 -0.994888 0.0540962
-1.01767 0.352251 -0.550413 0.037653 -0.99514 0.0539117
0.408344 0.348794 -0.176129 0.0134166 -0.997701 0.0531009
-1.47125 0.296881 -0.438682 0.0741418 -0.991649 0.0548405
-0.120878 0.152042 -0.579827 0.052756 -0.993744 0.054257
0.0315826 0.172638 -0.680609 0.00826924 -0.998008 0.0531192
0.140451 -0.138872 -0.349017 0.0209666 -0.996713 0.0535062
0.378412 0.409403 -0.315044 0.0697614 -0.99405 0.0531391
-1.11793 -0.298822 -0.201507 0.0465695 -0.994363 0.0540783
-0.240064 0.00512398 -0.666834 0.0348029 0.120399 0.0971714
0.142162 -0.103963 0.633194 0.0298557 0.229086 0.10149
0.566765 -0.276319 0.144989 0.0539742 -0.461266 0.0740658
-0.13022 -0.222561 -0.302386 0.0512893 -0.437427 0.0750145
0.995482 0.298753 -0.228064 0.0543674 -0.565763 0.0699176
-0.145964 -0.299168 -0.461058 0.0224581 0.293528 0.104055
-0.0974887 -0.239642 -0.387728 0.0500965 -0.376412 0.0774374
-0.0853407 -0.204943 -0.573333 0.034818 -0.0141603 0.0918302
0.183679 0.403473 -0.272079 0.0287414 0.1343 0.0977286
-1.54717 -0.297416 -0.334199 0.0303919 0.0736608 0.0953201
-0.798785 0.35955 -0.521186 0.0138872 0.578042 0.115356
0.151169 0.164497 -0.269177 0.181215 0.747603 0.0853783
-1.51345 0.356522 -0.415681 0.234528 0.898495 0.0792851
0.195967 -0.102697 -0.584417 0.160729 0.666671 0.0761866
0.278681 0.00376151 1.66409 0.126745 0.552533 0.0710491
0.537236 0.428263 -0.390756 0.218905 0.851557 0.0797034
0.141204 -0.159618 0.375863 0.117279 -0.612205 0.0534732
1.35897 -0.272136 -0.0015879 0.276944 0.539638 0.0476778
0.16538 0.390923 -0.438671 0.314775 0.842529 0.0478657
-0.150833 0.0783882 -0.31901 0.1449 -0.388095 0.0537645
1.21481 -0.251057 -0.310375 0.23377 -0.0894633 0.0271068
0.0446037 -0.216743 -0.0259655 0.273344 0.245137 0.0241184
1.30345 -0.289178 -0.23385 0.325465 0.754125 0.0330946
0.389592 -0.303121 -0.279233 0.182473 -0.475285 0.0400339
-0.956687 0.337506 -0.392316 0.292623 0.394724 0.0201263
-0.862086 0.381053 -0.114102 0.321959 0.747475 -0.117473
0.401949 0.0686167 1.35281 0.280482 0.264875 -0.0516432
-0.311605 -0.524396 -0.434555 0.32615 0.765774 -0.114772
1.07492 -0.292703 -0.185157 0.226162 -0.188292 -0.0203332
0.0745782 -0.225203 -0.0624964 0.31489 0.511484 -0.0590603
1.49435 0.395875 -0.054374 0.180371 0.793185 -0.364971
-0.0799798 -0.167999 -0.77749 0.170594 0.739906 -0.486704
-1.17916 0.344498 -0.276487 0.27121 0.84428 -0.291744
-0.12781 -0.00241624 1.67764 0.238933 0.825325 -0.319669
0.181294 0.0599683 1.30566 0.348041 0.913947 -0.118367
0.457307 0.335836 -0.3132 0.308421 0.903201 -0.199127
-1.14436 0.338744 -0.200161 0.323868 0.908863 -0.166914
0.0608277 -0.311756 -0.255661 0.345333 0.914161 -0.123418
0.550453 -0.00273503 1.43584 0.336227 0.910999 -0.142322
0.565463 0.412256 -0.434193 0.290406 0.893951 -0.238004
0.095769 0.153616 -0.594703 0.344034 0.931748 -0.0129573
0.42167 -0.0343632 -0.0639506 0.280422 0.946482 -0.000893592
-0.782549 -0.266012 -0.0366965 0.322554 0.935667 -0.0199676
0.00363948 0.190956 1.55821 0.277687 0.945936 -0.0127598
0.50571 0.00948259 1.48894 0.286779 0.94474 -0.00493277
-1.16774 -0.268202 -0.236755 0.187844 0.969725 0.082758
-0.904942 0.424622 -0.53875 0.221353 0.965526 0.0797033
-0.0937293 0.349024 -0.120397 0.193138 0.9684 0.0809025
0.617105 0.331199 -0.394766 0.293845 0.950016 0.0597583
-0.624951 -0.327882 -0.335459 0.284445 0.94947 0.0570386
0.12165 -0.259894 -0.24699 0.102392 0.686941 0.0868612
-0.399695 -0.512153 -0.256496 0.138172 0.814123 0.0905758
-0.106486 -0.277822 0.0580296 0.10148 0.898025 0.106143
-0.148794 -0.0158878 -0.26921 0.106549 0.790401 0.0953105
-0.147188 -0.107803 -0.0645745 0.133198 0.86573 0.0963236
-0.376106 -0.422082 -0.399863 -4.37053e-05 -0.477777 0.0736684
-0.14373 0.0753341 0.108864 -3.70017e-05 -0.755226 0.0626995
0.128233 -0.246156 -0.116997 -3.37765e-05 -0.891599 0.0573079
0.174859 -0.250285 -0.105589 -3.84963e-05 -0.696931 0.0650041
1.14807 0.379723 -0.361434 -4.18041e-05 -0.555484 0.0705963
-0.127618 0.127415 0.610426 -3.45272e-05 -0.856896 0.05868
0.973187 -0.279378 0.0868011 -3.75352e-05 -0.735769 0.0634686
-0.214747 0.327883 -0.524108 -3.72353e-05 -0.75048 0.0628869
-0.806291 0.407597 -0.559831 -3.58225e-05 -0.809709 0.0605453
0.42748 -0.257409 -0.145003 -3.95665e-05 -0.649935 0.0668621
1.38975 0.379276 -0.0474647 -4.49217e-05 -0.426174 0.0757086
-1.0129 0.385628 -0.269482 -3.80129e-05 -0.716139 0.0642447
-0.273213 -0.285517 0.0919149 -3.51408e-05 -0.842053 0.0592664
0.207381 -0.3221 -0.396514 -3.64169e-05 -0.78327 0.0615906
-0.35402 -0.533563 -0.42734 -3.85319e-05 -0.694682 0.065093
-1.71234e-05 0.00173634 1.71953 -4.0529e-05 -0.608021 0.0685193
0.569569 0.363368 -0.0106523 -4.57243e-05 -0.392544 0.0770382
0.11595 -0.221932 -0.678155 -3.6517e-05 -0.780536 0.0616987
-0.116312 0.33838 -0.458313 -4.05893e-05 -0.610628 0.068416
-0.0501217 -0.00068934 1.47938 -3.30436e-05 -0.93179 0.0557185
-0.117805 -0.112766 0.999119 -3.54251e-05 -0.82327 0.0600093
-1.19678 0.0897077 -0.278854 -3.91777e-05 -0.666027 0.0662259
-0.166054 0.356132 -0.349592 -4.15077e-05 -0.572405 0.0699271
-0.4023 -0.29796 0.0107484 -3.63745e-05 -0.787269 0.0614324
-0.300605 0.079051 1.35555 -3.72219e-05 -0.751703 0.0628385
1.55599 0.323483 -0.475883 -3.55214e-05 -0.815302 0.0603244
1.27532 -0.265229 -0.0233774 -3.78317e-05 -0.724899 0.0638983
0.217131 -0.280602 0.0587619 -3.53088e-05 -0.828065 0.0598197
-0.334784 0.372454 -0.0849215 -3.78615e-05 -0.724261 0.0639235
-0.444513 -0.126707 -0.388537 -3.68361e-05 -0.765492 0.0622935
0.000324906 0.14857 1.67619 -3.76211e-05 -0.725706 0.0638667
-0.211894 0.000927122 -0.66828 -3.39237e-05 -0.891595 0.0573078
1.47083 0.352717 -0.521551 -3.93366e-05 -0.655265 0.0666516
0.182468 -0.304242 -0.413917 -3.4262e-05 -0.870459 0.0581437
0.383608 0.390818 -0.187759 -3.34825e-05 -0.906571 0.0567159
-0.15101 -0.0766471 -0.479146 -3.83578e-05 -0.703458 0.064746
1.16804 -0.0950691 -0.135435 -3.63285e-05 -0.791652 0.0612591
0.141044 -0.000798662 1.49351 -3.48347e-05 -0.85164 0.0588875
0.735469 0.385234 -0.108197 -4.09139e-05 -0.592412 0.0691364
-0.703223 0.396673 -0.0246642 -3.97421e-05 -0.646746 0.066988
0.104505 0.0518842 0.918618 -3.76338e-05 -0.729367 0.0637218
0.0778765 -0.308091 -0.126197 -3.92051e-05 -0.667612 0.0661632
-0.0569543 0.340202 -0.423014 -3.57825e-05 -0.810495 0.0605142
0.633919 -0.282184 -0.0275606 -3.42948e-05 -0.872706 0.0580547
-1.17983 0.324174 -0.281841 -4.13454e-05 -0.574819 0.0698319
0.0237717 0.36081 -0.213627 -3.36445e-05 -0.903539 0.0568356
0.0741326 -0.211964 -0.440058 -4.00072e-05 -0.631789 0.0675795
0.0111876 -0.287069 -0.0790827 -4.23142e-05 -0.537616 0.0713026
0.475602 0.338166 -0.115709 -3.80295e-05 -0.715354 0.0642757
-0.360799 0.340837 -0.276732 -3.25428e-05 -0.951462 0.0549408
-1.44638 0.37711 -0.0428097 -4.31128e-05 -0.503028 0.0726701
0.936217 -0.194609 -0.374905 -3.59582e-05 -0.801771 0.0608592
0.209003 -0.101449 -0.615957 -4.05825e-05 -0.608978 0.0684813
0.366799 0.411059 -0.216033 -4.16111e-05 -0.565745 0.0701906
0.00609366 0.249835 1.62177 -3.33829e-05 -0.913361 0.0564473
-0.434568 0.0932589 -0.0636993 -3.86088e-05 -0.687134 0.0653916
-0.165481 -0.0953374 -0.397822 -3.72049e-05 -0.750212 0.0628976
0.475126 0.419786 -0.303399 -3.936e-05 -0.659352 0.0664898
0.0915272 0.0898705 1.50344 -3.58761e-05 -0.809413 0.0605569
-0.757934 0.317152 -0.539046 -3.53666e-05 -0.829789 0.0597514
0.0695684 -0.0932667 -0.495586 -3.89553e-05 -0.679479 0.0656939
-0.273328 0.399287 -0.412636 -3.726e-05 -0.743625 0.0631582
-1.14373 0.332429 0.0622034 -3.53312e-05 -0.827767 0.0598314
-0.0308248 0.177131 -0.582789 -4.22663e-05 -0.540826 0.0711756
1.29391 -0.258106 -0.36112 -3.62988e-05 -0.779862 0.0617257
-0.0778825 0.118469 -0.771986 -3.87494e-05 -0.684043 0.0655137
0.166007 0.0593203 -0.578065 -3.80323e-05 -0.719193 0.0641238
0.250843 -0.22023 -0.317686 -3.38489e-05 -0.891659 0.0573054
-0.849173 0.320775 -0.25926 -4.01486e-05 -0.621842 0.067973
0.16667 -0.161629 -0.752152 -3.1481e-05 -0.998583 0.0532005
0.556791 0.383568 -0.321882 -3.22922e-05 -0.998507 0.0544989
-0.144554 -0.165684 0.330519 -3.14913e-05 -0.998582 0.0532268
-0.85099 -0.262601 -0.051008 -3.32511e-05 -0.998417 0.0560229
-0.0621566 0.159359 0.251983 -3.24773e-05 -0.998486 0.0548568
-0.127872 0.311821 -0.559203 -3.20374e-05 -0.998529 0.0541293
-0.319394 -0.575724 -0.429273 -3.40525e-05 -0.998339 0.0573554
1.05698 -0.306973 -0.112482 -3.15315e-05 -0.998577 0.0533025
-0.956737 -0.329403 -0.257398 -3.2576e-05 -0.998478 0.0549921
1.36829 0.361005 -0.321207 -3.37368e-05 -0.998369 0.0568419
1.25979 0.420888 -0.135339 -3.4522e-05 -0.998295 0.0581053
-0.115702 0.134051 -0.169551 -3.15083e-05 -0.998587 0.0531353
-0.149386 -0.108966 0.111643 -3.54737e-05 -0.998202 0.0596843
1.55313 0.409892 -0.16058 -3.35551e-05 -0.998386 0.0565496
0.150845 -0.0800534 0.0520433 -3.35199e-05 -0.998392 0.0564586
-0.0494564 0.0503202 1.43394 -3.31096e-05 -0.998428 0.0558299
1.31888 0.321061 0.00875271 -3.17329e-05 -0.998561 0.0535816
0.651971 0.37702 -0.025211 -3.2031e-05 -0.998536 0.0540006
-0.33547 -0.664232 -0.399848 -3.46654e-05 -0.99828 0.0583557
0.00086472 -0.040005 -0.809827 -3.2924e-05 -0.998445 0.0555566
-0.429759 0.363925 0.0475505 -3.4227e-05 -0.998319 0.0576851
-0.0100411 0.410728 1.74579 -3.40735e-05 -0.998337 0.0573915
0.25561 -0.00576826 1.63611 -3.37236e-05 -0.998368 0.0568572
-1.17804 0.0562402 -0.325517 -3.2819e-05 -0.99846 0.0552983
0.901646 0.430893 -0.227164 -3.30354e-05 -0.998438 0.0556633
0.227076 0.00332585 1.72787 -3.16433e-05 -0.998565 0.0535014
0.274418 -0.544622 -0.423788 -3.36315e-05 -0.998381 0.056638
0.20356 -0.412336 -0.286495 -3.54573e-05 -0.998203 0.0596634
-0.0890366 0.0875573 1.42988 -3.34237e-05 -0.998399 0.0563306
-0.423918 -0.0651866 -0.170054 -3.16188e-05 -0.998569 0.0534489
-1.55295 -0.280242 -0.0911506 -3.30375e-05 -0.998437 0.055686
-0.00268564 0.165767 1.70356 -3.1969e-05 -0.998536 0.0540069
-0.446287 0.395411 -0.286832 -3.21348e-05 -0.998521 0.0542525
1.30944 0.391387 -0.473602 -3.20854e-05 -0.998527 0.0541475
-0.255379 -0.263324 -0.0824152 -3.21974e-05 -0.998512 0.0544135
-0.118077 -0.00174347 1.29588 -3.42798e-05 -0.998315 0.0577675
0.955206 0.401148 -0.543582 -3.41473e-05 -0.99833 0.0575124
-0.803009 0.327457 -0.37036 -3.42745e-05 -0.998318 0.0577152
-0.830785 0.39115 -0.42966 -3.2892e-05 -0.998452 0.05543
-0.00353633 0.279349 1.4013 -3.37333e-05 -0.99837 0.0568196
0.136248 -0.218308 -0.286075 -3.55052e-05 -0.998199 0.0597347
0.250012 0.00215666 1.39935 -3.16102e-05 -0.998572 0.0533953
-1.26637 -0.237399 -0.00726191 -3.31928e-05 -0.998417 0.0560184
0.144482 0.0522813 -0.490915 -3.15639e-05 -0.998578 0.053288
0.307543 -0.00363918 1.36414 -3.44149e-05 -0.998303 0.0579677
-1.07984 -0.29499 -0.0219582 -3.30575e-05 -0.998431 0.0557839
0.779076 -0.219108 -0.326898 -3.21686e-05 -0.998521 0.0542491
-0.0877637 0.0856712 0.849852 -3.15492e-05 -0.998581 0.0532436
0.104964 0.154715 0.501191 -3.15982e-05 -0.998577 0.0533
-0.331429 -0.309417 -0.241959 -3.19317e-05 -0.998545 0.0538453
-0.253539 0.00396346 1.62386 -3.27654e-05 -0.998463 0.0552355
0.780323 -0.291528 -0.460635 -3.18805e-05 -0.998546 0.0538334
1.01899 0.400662 -0.541945 -3.37045e-05 -0.998372 0.0567936
0.139308 0.0117514 0.217112 -3.18e-05 -0.998553 0.0537094
1.53941 -0.351882 -0.331926 -3.16502e-05 -0.998565 0.0535135
0.236675 0.369222 -0.142257 -3.17218e-05 -0.998565 0.053517
0.0500766 -0.323603 -0.408958 -3.35582e-05 -0.998384 0.0565815
-0.291022 -0.485924 -0.415623 -3.3361e-05 -0.998406 0.0562045
-0.152733 0.076174 -0.254439 -3.16316e-05 -0.99857 0.0534298
0.366104 0.35025 -0.293768 -3.43321e-05 -0.998311 0.0578254
0.0516367 0.134149 -0.492719 -3.24854e-05 -0.998489 0.0547954
-0.000507992 0.084179 1.53094 -3.20644e-05 -0.998531 0.0540919
0.789142 -0.255129 -0.0729108 -3.23782e-05 -0.998496 0.0546776
-0.480302 0.0647641 1.35334 -3.34752e-05 -0.998395 0.056404
0.120762 -0.176429 0.326155 -3.19339e-05 -0.998543 0.0538749
0.62263 -0.257534 -0.390331 -3.20238e-05 -0.998535 0.0540237
-0.217762 0.403833 -0.498627 -3.1965e-05 -0.998542 0.0539037
1.05031 -0.321039 -0.120286 -3.25609e-05 -0.998481 0.0549426
0.0603171 -0.21145 0.189727 -3.14756e-05 -0.998582 0.0532131
0.1082 -0.223716 -0.141905 -3.30523e-05 -0.998432 0.0557623
1.50045 -0.283581 -0.240025 -3.29418e-05 -0.998443 0.055584
1.18216 -0.181932 -0.386413 -3.20932e-05 -0.99853 0.0541044
0.528142 -0.315472 -0.399674 -3.35555e-05 -0.998387 0.0565428
-0.675431 -0.306118 0.0823488 -3.15901e-05 -0.99857 0.0534241
-0.42113 -0.316328 -0.374533 -3.44073e-05 -0.998305 0.0579328
-0.0467724 -0.316925 -0.239443 -3.16496e-05 -0.998564 0.0535234
0.151299 0.395114 -0.202581 -3.49849e-05 -0.998248 0.0589066
0.000503991 -0.0220468 1.56119 -3.37911e-05 -0.998363 0.0569379
0.0169983 -0.228317 -0.114493 -3.25362e-05 -0.99848 0.0549577
0.788936 -0.260187 -0.0277212 -3.2579e-05 -0.998478 0.0549929
0.182316 0.316071 -0.446789 -3.20255e-05 -0.998535 0.0540273
-0.157772 0.330892 -0.440857 -3.17474e-05 -0.998563 0.0535392
0.611077 0.342536 -0.260102 -3.2753e-05 -0.998462 0.0552579
1.39241 0.337655 -0.298635 -3.22158e-05 -0.998515 0.0543666
-0.724889 0.373809 -0.223389 -3.15926e-05 -0.998571 0.0534115
-0.59801 0.347509 -0.0210983 -3.31396e-05 -0.998428 0.0558438
-1.25556 -0.305327 -0.204254 -3.45023e-05 -0.998293 0.0581283
-1.29898 0.409284 -0.000886289 -3.65084e-05 -0.998097 0.0615018
-0.00197464 0.117805 1.33904 -3.62706e-05 -0.998125 0.0610435
-0.28782 0.391321 -0.160109 -3.64343e-05 -0.998111 0.0613614
1.44684 0.39941 -0.0250064 -3.65191e-05 -0.998098 0.0615237
-0.350043 0.385841 -0.304058 -3.62073e-05 -0.998131 0.0609208
0.355496 -0.563625 -0.348215 -3.63642e-05 -0.998114 0.0612237
-0.118799 0.0246591 0.49266 -3.68737e-05 -0.998055 0.0622069
0.0552949 -0.236346 -0.425097 -3.63854e-05 -0.998111 0.0612643
0.894659 0.373174 0.0450226 -3.65511e-05 -0.99809 0.0615834
-0.736034 -0.295983 0.119705 -3.67702e-05 -0.998067 0.0620071
-0.422039 0.00699002 1.51215 -3.71417e-05 -0.998023 0.0627235
-1.48233 -0.265785 0.0596875 -3.65218e-05 -0.998093 0.0615268
0.208915 -0.338448 -0.386064 -3.63077e-05 -0.998123 0.0611161
-1.08641 -0.292807 0.0405631 -3.62258e-05 -0.998128 0.0609561
-0.087856 0.17383 0.524447 -3.73058e-05 -0.998006 0.0630406
1.27418 -0.295199 0.0458383 -3.68737e-05 -0.998057 0.0622074
-0.195541 -0.128584 -0.574006 -3.687e-05 -0.998055 0.0621993
-0.0762981 -0.213233 -0.44608 -3.63715e-05 -0.998114 0.0612385
-1.04082 -0.240818 0.0441159 -3.64705e-05 -0.9981 0.0614283
0.0782645 0.0394088 -0.79125 -3.62239e-05 -0.99813 0.0609533
-0.687398 -0.233938 -0.0434179 -3.63543e-05 -0.998112 0.0612036
0.556697 -0.25233 -0.150274 -3.63151e-05 -0.998121 0.0611295
-0.14255 0.0736721 1.2122 -3.6553e-05 -0.998094 0.0615891
0.429678 -0.292983 0.155065 -3.67061e-05 -0.998077 0.0618847
0.975668 -0.208005 -0.3859 -3.69403e-05 -0.998047 0.0623353
0.254679 -4.22089e-05 1.42816 -3.64957e-05 -0.998098 0.0614775
0.712865 -0.234796 -0.232526 -3.67973e-05 -0.998063 0.0620591
-0.574074 -0.254105 -0.236031 -3.63352e-05 -0.998121 0.0611694
-0.0432397 0.35417 -0.125399 -3.68925e-05 -0.998055 0.0622441
-0.243096 0.000396183 1.70443 -3.69785e-05 -0.998042 0.0624086
0.462064 0.350179 -0.170878 -3.71521e-05 -0.998023 0.0627438
1.12259 0.403241 -0.461779 -3.62178e-05 -0.998131 0.0609414
-0.997199 -0.246914 -0.0397446 -3.66221e-05 -0.998083 0.0617208
0.00113008 0.0618541 1.5358 -3.62661e-05 -0.998126 0.0610351
0.200923 -0.137106 -0.606243 -3.67372e-05 -0.998069 0.0619428
-0.695736 0.366889 -0.0408379 -3.63545e-05 -0.998121 0.0612077
-0.124521 0.150573 0.60324 -3.65292e-05 -0.998099 0.0615441
-0.155723 0.116337 -0.309532 -3.64854e-05 -0.998099 0.0614571
1.24041 0.337536 -0.480479 -3.68056e-05 -0.998066 0.0620768
-0.159808 0.0503771 -0.185558 -3.70498e-05 -0.998035 0.0625466
0.178976 0.359603 -0.136417 -3.69902e-05 -0.998041 0.0624311
0.242268 0.004088 1.58532 -3.65566e-05 -0.998095 0.0615966
-0.00094821 0.0439615 1.45516 -3.63002e-05 -0.998122 0.0611008
0.350186 -0.00788954 1.50045 -3.64032e-05 -0.998108 0.0612985
-0.23504 -0.423218 -0.303982 -3.6417e-05 -0.998111 0.0613271
0.805437 -0.282491 -0.0704677 -3.71162e-05 -0.998026 0.0626741
1.39514 -0.253752 0.0659198 -3.66145e-05 -0.998086 0.0617072
-1.38488 0.289084 -0.55345 -3.64725e-05 -0.998106 0.0614349
-0.0994641 -0.1303 0.696501 -3.62587e-05 -0.998127 0.0610209
-0.855416 0.396198 -0.50501 -3.69317e-05 -0.998049 0.0623187
0.13302 0.0488311 -0.441929 -3.70187e-05 -0.998039 0.0624868
0.583873 0.320783 -0.55101 -3.66718e-05 -0.998082 0.0618191
0.119447 0.147001 0.545608 -3.66262e-05 -0.998084 0.0617294
-0.252071 -0.124263 -0.835068 -3.70661e-05 -0.998035 0.0625789
-1.34055 0.334623 0.0459964 -3.63225e-05 -0.998122 0.0611448
-0.436626 -0.202951 -0.0488296 -3.68381e-05 -0.99806 0.0621386
0.53757 -0.0100705 1.43415 -3.66566e-05 -0.998082 0.0617888
-0.808997 -0.319321 -0.135268 -3.65177e-05 -0.998095 0.0615197
-1.39787 0.367102 -0.496722 -3.61972e-05 -0.998133 0.0609014
0.486688 -0.249242 -0.160059 -3.6365e-05 -0.998118 0.0612275
0.131387 0.125267 0.137434 -3.63714e-05 -0.998117 0.0612396
0.0442856 0.403217 -0.512677 -3.68119e-05 -0.998062 0.0620875
-0.000119473 0.119253 1.38934 -3.63915e-05 -0.998108 0.0612755
0.597004 0.32951 -0.113198 -2.73683e-05 -0.997274 0.0460807
-0.803307 -0.231399 -0.271334 -3.80236e-06 -0.994866 0.00635752
-0.0833282 -0.191287 0.486902 -2.93847e-05 -0.997555 0.0495025
0.676216 -0.259153 -0.413895 -2.83068e-05 -0.997303 0.0476422
0.0736828 -0.147324 0.779171 -3.31829e-05 -0.997894 0.0558898
-0.593752 -0.2372 -0.442571 -1.33789e-05 -0.995786 0.022482
-1.15638 -0.24555 -0.166514 -3.32639e-05 -0.99797 0.0560472
0.467969 0.354038 -0.114313 -2.83558e-06 -0.994752 0.00472337
-0.079047 0.381746 -0.255019 -2.19644e-05 -0.996763 0.0369845
-0.137682 -0.0328683 -0.259842 -2.02201e-05 -0.996522 0.034025
-0.108977 -0.26073 -0.0408452 -7.84942e-06 -0.995257 0.0131726
0.140234 0.00134148 -0.754926 -1.15671e-05 -0.995713 0.0194623
0.668099 -0.259917 -0.474132 -1.68084e-05 -0.996141 0.0282642
-0.242682 -0.427055 -0.297274 -2.25566e-05 -0.996851 0.0379911
0.238492 -0.0442009 -0.730992 -7.83296e-08 -0.994449 6.90974e-05
-0.263246 0.389201 -0.522146 -1.72482e-05 -0.996248 0.0290247
-0.294589 0.0696144 1.38063 1.7523e-05 -0.992638 -0.0296036
-0.00398701 0.223223 1.73388 -3.44437e-05 -0.998054 0.0580246
-0.78488 0.409805 -0.0737699 -2.21321e-05 -0.996779 0.0372668
1.41895 0.379434 -0.585059 -2.13074e-05 -0.996618 0.0358531
0.0845628 0.405269 -0.229665 -9.27919e-07 -0.994515 0.00149493
-0.14685 0.0857853 0.524626 -3.14772e-05 -0.997805 0.0530407
0.816315 0.379302 -0.130019 -3.23443e-05 -0.997852 0.0544896
0.639426 0.416796 -0.428852 -2.03626e-05 -0.996556 0.034271
0.256969 0.00347708 1.42645 1.76283e-05 -0.992638 -0.0297779
-0.246309 0.0690173 1.34554 -2.85756e-05 -0.997496 0.0481459
-0.129527 -0.0343305 -0.723378 -1.00402e-06 -0.99459 0.00164369
-1.18296 0.338193 -0.122888 -1.54398e-05 -0.996127 0.0259959
0.275259 0.399969 -0.409619 -2.65191e-05 -0.997196 0.0446518
-0.728775 0.351611 -0.109001 -1.98137e-05 -0.996556 0.0333632
0.649816 -0.290484 -0.11318 -3.10001e-05 -0.997741 0.0522319
-1.24885 -0.276624 0.0491774 -1.93701e-05 -0.996521 0.0326185
1.18372 0.347563 -0.481007 3.03918e-06 -0.994149 -0.00517993
-0.919544 -0.255905 -0.13936 -3.53418e-05 -0.998058 0.0595114
-0.0509101 0.0523307 1.57031 -2.17415e-05 -0.996664 0.0365852
0.384639 0.329051 -0.237386 -1.7676e-05 -0.996306 0.02975
0.815428 -0.234981 -0.307786 -6.39257e-07 -0.994566 0.00103297
1.42681 0.380675 -0.23167 -2.19275e-05 -0.996688 0.0369005
-0.474264 -0.212827 -0.316623 -1.74325e-05 -0.996291 0.0293425
0.927032 0.375119 -0.401527 -2.53323e-05 -0.997008 0.0426311
-1.10654 -0.323102 -0.442026 -2.26974e-05 -0.996811 0.0382117
-0.49371 0.0712025 1.41712 -2.14632e-05 -0.996631 0.0361148
0.621156 0.301637 -0.47208 -2.62264e-05 -0.997222 0.0441757
0.196156 -0.361827 -0.229355 5.82567e-06 -0.99387 -0.00987523
0.3491 -0.00244527 1.49379 -2.41837e-05 -0.997033 0.0407386
-0.000162639 0.154886 0.763114 -1.62253e-05 -0.996204 0.027319
0.100118 0.0955813 1.48454 -3.09164e-05 -0.997717 0.052086
0.0641667 -0.212446 -0.340794 -7.43744e-06 -0.995195 0.0124719
0.148493 -0.0801234 -0.330588 -1.38349e-05 -0.995904 0.0232725
-1.07257 0.321398 -0.101325 -2.21769e-05 -0.996721 0.0373229
0.45857 0.341361 -0.276639 -1.34825e-05 -0.995841 0.0226704
1.2844 -0.349889 -0.176049 -3.49547e-05 -0.998127 0.0588921
-0.142056 -0.187916 -0.0673382 0.000182953 -0.883591 -0.308513
1.23134 -0.312774 -0.279638 8.63267e-05 -0.947934 -0.145601
-0.463543 0.113656 -0.41309 0.000144296 -0.897364 -0.243278
0.120358 -0.125915 0.305835 8.85604e-05 -0.957017 -0.149419
-0.389391 -0.00258584 1.34835 0.000198897 -0.857387 -0.335316
1.18147 0.354218 -0.282949 0.000201769 -0.858282 -0.340172
-0.0438168 -0.086061 -0.829769 0.0002085 -0.858767 -0.351546
1.58321 -0.259251 -0.375339 0.000235954 -0.828315 -0.397773
-1.52138 0.342667 -0.288352 4.53077e-05 -0.973918 -0.0764361
0.363909 -0.603291 -0.309245 0.000144574 -0.913697 -0.243828
1.26493 0.347992 -0.334322 0.000296882 -0.781897 -0.500468
-0.347634 0.0673185 1.38121 0.000204103 -0.863813 -0.344143
0.647087 0.415905 -0.24486 7.70923e-05 -0.971408 -0.130118
-0.310239 -0.305203 -0.271399 6.64207e-05 -0.966654 -0.112066
0.314252 0.00573315 1.44718 0.000134452 -0.909531 -0.226709
0.81849 0.365629 -0.16521 0.000382112 -0.487167 -0.643889
0.482631 0.392726 -0.199032 0.000406221 -0.428807 -0.684596
-0.380901 0.405554 -0.428462 0.000454659 -0.262421 -0.766272
1.29524 0.425066 -0.382125 0.000365542 -0.705277 -0.616309
0.000101053 0.0175739 -0.75782 0.000449368 -0.327256 -0.757455
0.173129 0.0909014 -0.570743 0.000404358 -0.43466 -0.681454
-0.150697 0.0602567 -0.143488 0.000439182 -0.262776 -0.740057
0.298358 0.413909 -0.463291 0.000427103 -0.445117 -0.720005
0.430658 0.102623 -0.199068 0.000399985 -0.470344 -0.674126
-0.0443355 -0.0437365 1.15723 0.000407021 -0.527325 -0.686172
1.47517 0.329564 -0.502922 0.000447281 -0.460194 -0.754216
-0.157426 0.04 -0.0827742 0.000377592 -0.6407 -0.636575
0.148201 0.0637949 -0.242835 0.000484285 0.342348 -0.816204
-0.122443 -0.00118737 0.719239 0.000434577 0.452346 -0.732652
-1.27184 -0.321148 -0.274108 0.000471207 0.35312 -0.794155
-0.492078 0.00499971 1.62648 0.000465908 0.383234 -0.785316
-0.0251925 -0.255556 -0.405238 0.000452073 0.489752 -0.762339
0.420739 -0.587159 -0.446008 0.000378569 0.612707 -0.638646
1.49315 0.415477 -0.411957 0.000366137 0.697986 -0.61796
0.175746 -0.0546755 -0.474061 0.000461061 0.371252 -0.777086
0.175101 0.0558542 1.33394 0.000481632 0.369911 -0.811823
0.638789 -0.280116 0.0973722 0.000470182 0.317568 -0.792294
-0.139115 -0.0658995 0.137829 0.000453898 0.480158 -0.765385
1.18344 -0.227643 -0.246277 0.000452922 0.332146 -0.763198
-0.0240296 -0.179958 0.483261 0.000474649 0.407096 -0.800166
-0.00047291 0.0508028 1.53632 0.000471005 0.49232 -0.794322
-0.0860401 -0.273755 -0.461806 0.00029625 0.8504 -0.499684
0.0020028 0.240675 1.56752 0.000285249 0.840641 -0.481518
-0.384568 0.33716 -0.269466 0.000251428 0.87665 -0.424143
0.749827 0.372113 -0.0872777 0.000222548 0.903504 -0.37524
-1.02864 -0.334696 -0.165621 0.000187174 0.913836 -0.315863
1.37878 -0.219009 -0.307767 0.000223365 0.900361 -0.37668
-0.121278 0.0772042 -0.489489 0.000134747 0.954461 -0.227277
0.323868 0.00367639 1.41865 0.000151922 0.936674 -0.2564
-0.133165 -0.208877 0.0789796 0.000205043 0.91332 -0.34575
0.125466 0.15352 0.546651 0.000208805 0.89805 -0.35239
-0.163355 -0.173315 -0.0969231 0.000222473 0.89317 -0.375355
0.264867 0.351329 -0.324978 0.000159251 0.9334 -0.268729
0.0367229 -0.158662 0.8085 0.000248367 0.874266 -0.419081
-0.409208 -0.0973976 -0.390854 0.000251385 0.864416 -0.424355
1.41047 -0.281831 -0.355492 0.000283223 0.838664 -0.478177
-0.179596 0.0969158 -0.580868 5.80954e-05 0.98447 -0.0980092
-1.11537 -0.234444 -0.238688 2.59253e-05 0.993097 -0.0437236
1.49897 -0.338612 0.0956684 4.82564e-05 0.988847 -0.0813789
-0.123891 0.313275 -0.495813 2.56152e-05 0.991896 -0.0432206
0.362294 -0.519177 -0.517459 8.995e-06 0.993426 -0.0152208
0.171333 -0.139885 -0.645826 8.77552e-05 0.976877 -0.148053
0.0435733 0.193895 -0.739913 5.2365e-05 0.990778 -0.0882641
0.072846 -0.291537 0.129012 5.54743e-05 0.983707 -0.0936094
-1.56868 0.351247 -0.197592 7.80422e-05 0.984918 -0.131577
0.137582 -0.175595 -0.669678 5.69709e-05 0.986579 -0.0960831
-0.363298 -0.272494 0.0351421 4.42481e-06 0.993865 -0.00752115
-0.230758 -0.00301443 -0.522811 8.40974e-05 0.980321 -0.141842
-0.900537 -0.290766 -0.0214119 4.81889e-05 0.986626 -0.0813003
0.109297 -0.000395107 1.59821 7.26941e-05 0.985579 -0.122565
-1.1309 0.370526 -0.488518 7.66303e-05 0.984932 -0.1292
-0.0308413 -0.0311834 -0.815278 4.54153e-05 0.986626 -0.0766317
-0.505915 0.000287973 1.47135 7.36144e-05 0.980753 -0.12419
0.0159924 0.170936 0.253197 7.15829e-05 0.983389 -0.120729
-0.269726 -0.299892 -0.4041 5.99778e-05 0.982645 -0.101207
1.52731 -0.350983 -0.233365 6.80564e-05 0.989713 -0.114693
1.21837 0.385333 -0.0178683 9.38919e-05 0.976146 -0.158394
0.29793 0.312366 -0.494934 2.7731e-05 0.989435 -0.0468208
1.53121 0.302964 -0.374969 8.1918e-05 0.980106 -0.138177
0.879399 -0.303893 -0.424133 7.54836e-06 0.992737 -0.0127966
-1.24467 -0.3383 0.0405108 9.46547e-06 0.991614 -0.0160412
-0.43121 0.321729 -0.414704 5.54156e-05 0.989464 -0.0934197
-0.148812 -0.230108 -0.371268 5.96064e-05 0.990216 -0.100462
0.049457 0.156346 0.541436 7.30652e-05 0.982449 -0.123239
-0.10927 -0.0748133 0.735578 -1.1494e-05 0.995595 0.0193011
-1.27722 0.442679 -0.327408 6.00814e-05 0.98428 -0.101355
-0.429097 0.159508 -0.174151 -8.12274e-06 0.99521 0.0136205
0.0680238 0.00154546 1.52064 4.38401e-08 0.993974 -0.000145253
0.988937 -0.270512 -0.133844 5.46477e-05 0.983121 -0.0922272
-1.05676 -0.287236 -0.173835 5.44077e-05 0.985546 -0.091785
0.122301 -0.0310147 0.60624 1.52844e-05 0.9919 -0.0258313
0.386424 -0.327963 -0.333253 4.14545e-05 0.988156 -0.0699407
0.00222815 0.143859 1.75114 6.27732e-05 0.986275 -0.105854
-0.502069 -0.293784 -0.36609 9.24085e-05 0.978005 -0.155868
-0.157398 0.349846 -0.171291 3.53811e-05 0.990565 -0.0596797
0.833947 0.354982 -0.131849 8.78672e-05 0.978338 -0.148219
0.405445 -0.516719 -0.259687 6.0564e-05 0.989884 -0.102079
-1.08835 0.400264 -0.199632 1.67572e-05 0.989768 -0.0283441
0.968551 0.394269 -0.17468 4.49353e-05 0.987513 -0.0758097
-1.12708 -0.217086 -0.177352 5.66895e-05 0.990194 -0.0955525
0.157047 -0.239404 -0.40935 -1.8197e-06 0.994069 0.00299301
1.3064 -0.292161 0.139369 7.48724e-05 0.979314 -0.12633
-0.0323163 -0.317355 -0.372623 -4.35659e-05 0.995886 0.0734324
0.393498 -0.511297 -0.248737 -3.94527e-05 0.996449 0.0665456
-0.0985675 0.102833 0.938066 -5.69005e-05 0.994618 0.0958327
0.40676 0.0655606 1.3511 -4.22533e-05 0.996142 0.0712448
0.903372 0.321662 -0.355625 -4.06545e-05 0.996319 0.0685623
1.18365 -0.187302 -0.367002 -5.85247e-05 0.994661 0.0985873
-0.508093 -0.315756 -0.192085 -4.59236e-05 0.9952 0.0773321
0.0239492 -0.191424 0.462903 -3.83209e-05 0.996866 0.064685
1.10842 0.401177 -0.549441 -4.35144e-05 0.995784 0.0733319
-0.129063 0.399837 -0.274551 -3.78888e-05 0.996374 0.063889
0.00223044 -0.0978898 1.5141 -2.89097e-05 0.996663 0.0487307
1.07716 -0.282675 0.0911034 -4.2124e-05 0.996363 0.0710551
1.46589 -0.306632 -0.0408363 -5.34172e-05 0.995031 0.0899921
-0.0977724 0.0969219 0.940484 -5.52975e-05 0.995014 0.0931721
0.0620274 -0.2047 0.120624 -2.98281e-05 0.99602 0.0502002
-0.263392 -0.567637 -0.378209 -4.18193e-05 0.995644 0.0704446
-0.738835 0.370706 -0.262634 -2.84767e-05 0.996476 0.0479733
-0.0507073 0.168071 -0.238186 -3.05101e-05 0.996135 0.0513696
1.39116 -0.216757 -0.441896 -3.92064e-05 0.996938 0.0661933
1.08443 -0.302294 -0.210757 -3.21808e-05 0.996746 0.0542776
0.135389 0.0718278 -0.310384 -3.73556e-05 0.996665 0.063025
-0.150504 0.031475 0.206134 -4.91604e-05 0.995821 0.0828921
-0.209727 0.354466 -0.196522 -5.61247e-05 0.994761 0.0945387
0.10963 0.000587 1.20571 -3.27911e-05 0.996496 0.0552776
1.16948 0.372537 -0.577953 -2.70234e-05 0.996608 0.0455311
-1.27752 -0.247245 -0.217009 -4.73443e-05 0.995868 0.0798247
-1.57636 -0.225702 -0.423608 -4.01146e-05 0.996012 0.0676081
0.00313383 0.230707 1.82413 -2.89818e-05 0.996305 0.0488055
0.139955 -0.251398 -0.153333 -2.11003e-05 0.996465 0.0354878
0.968731 -0.290567 -0.0827706 -4.78335e-05 0.995576 0.0806141
1.40702 0.351517 -0.0478311 -4.1348e-05 0.996035 0.0696985
0.0784826 -0.118828 0.859073 -3.79396e-05 0.996873 0.0640407
-1.48426 -0.282239 -0.148573 -3.42268e-05 0.995815 0.0576176
0.880609 0.445846 -0.302953 -4.91135e-05 0.99537 0.0827532
0.0603299 0.354936 -0.0170632 -3.67063e-05 0.995665 0.0617941
0.2699 -0.54688 -0.439284 -4.54016e-05 0.995922 0.0765439
0.624306 -0.243384 -0.333853 -5.37074e-05 0.99517 0.0905015
0.0249259 -0.30039 -0.179951 -4.31483e-05 0.996455 0.0728008
0.00136827 0.121409 1.10633 -4.07931e-05 0.995877 0.0687387
-1.11069 -0.260224 -0.0249123 -2.75191e-05 0.996293 0.0463283
-0.13124 -0.214861 0.178192 -4.84106e-05 0.995171 0.0815373
1.32868 -0.220345 -0.416442 -5.06638e-05 0.995373 0.0853773
-0.100888 -0.177539 -0.484055 -4.72342e-05 0.995655 0.0796103
0.370918 0.389494 -0.416605 -5.06827e-05 0.995639 0.0854444
-0.313256 -0.29542 -0.0658487 -4.03266e-05 0.995932 0.0679563
0.497454 -0.258066 -0.162553 -3.11938e-05 0.996297 0.0525481
0.136948 -0.00149327 -0.755809 -4.93625e-05 0.995207 0.0831532
-0.437924 -0.216961 -0.0498287 -3.66899e-05 0.996098 0.0618235
-0.507505 0.39871 -0.245889 -4.14279e-05 0.996303 0.0698692
0.244455 0.395608 -0.251031 -3.30702e-05 0.995945 0.0556771
-0.00266329 0.132686 1.02877 -3.98549e-05 0.99586 0.0671486
-0.143197 -0.0879763 0.227863 -4.57212e-05 0.995492 0.0770281
-1.28697 -0.293943 -0.228038 -3.0093e-05 0.996515 0.0507138
0.0242299 0.406247 -0.443526 -4.11039e-05 0.996605 0.0693606
0.577747 0.338463 -0.424251 -3.90643e-05 0.996126 0.0658456
0.381722 0.348317 0.03916 -2.49021e-05 0.996614 0.0419417
-0.045045 0.0450502 1.41018 -2.6577e-05 0.996368 0.0447439
0.951925 -0.302114 0.0858892 -5.17082e-05 0.994941 0.087088
0.213356 -0.00358195 1.31801 -4.13731e-05 0.996221 0.0697656
-0.0718711 0.00161361 1.4801 -3.59716e-05 0.996402 0.0606479
1.45326 0.335538 0.0298146 -3.25666e-05 0.996463 0.0548934
0.290486 0.0761432 1.39727 -4.32983e-05 0.995658 0.0729494
1.38222 -0.305904 0.0128526 -5.77074e-05 0.994802 0.0972226
1.33973 -0.227505 -0.25721 -5.35488e-05 0.994988 0.0902092
0.341483 0.351045 -0.221525 -3.81853e-05 0.995847 0.0643211
0.204159 0.399728 -0.165579 -4.65055e-05 0.995425 0.0783465
-0.143301 -0.308529 -0.457813 -4.90232e-05 0.995234 0.0825825
1.15874 0.0207315 -0.42967 -5.60948e-05 0.994794 0.0944925
0.13941 0.0853035 0.506753 -3.98851e-05 0.9956 0.0671652
0.664929 -0.290677 0.121419 -3.24925e-05 0.996411 0.054761
-0.157775 -0.259389 -0.401885 -3.01648e-05 0.996635 0.0508511
-0.000683949 0.259878 1.49113 -4.60861e-05 0.995515 0.0776487
0.00267637 0.237133 1.4484 -3.0402e-05 0.996452 0.0512285
-1.6097 -0.273449 -0.27481 -3.50074e-05 0.996657 0.0590496
1.38625 0.365385 -0.105206 -4.11432e-05 0.996396 0.0693997
-0.0536301 0.103004 1.29102 -4.65398e-05 0.996127 0.0784973
-0.239007 -0.41044 -0.30706 -5.01177e-05 0.995651 0.0844898
-1.50322 0.341787 -0.0224489 -3.82205e-05 0.996815 0.0645084
0.684811 0.388274 -0.123312 -4.1248e-05 0.996488 0.0695892
0.378169 -0.68082 -0.43066 -4.013e-05 0.996281 0.0676698
-0.0336308 -0.188811 0.584809 -3.54473e-05 0.995903 0.0596947
0.376521 0.359293 0.0156082 -4.24943e-05 0.995941 0.0716261
-1.01886 0.385152 0.0251579 -3.79374e-05 0.996035 0.0639264
0.377536 -0.499882 -0.356211 -4.40277e-05 0.995544 0.0741689
-0.836338 -0.324788 -0.128207 -4.35795e-05 0.996139 0.0734889
0.723363 -0.300991 0.033535 -2.67198e-05 0.996493 0.0450021
1.39347 0.363512 -0.268941 -7.12374e-05 0.992685 0.120135
1.4066 -0.293025 -0.444604 -6.74204e-05 0.993369 0.113652
-0.857858 -0.285919 -0.0142448 -6.74906e-05 0.993336 0.113757
-0.0460012 -0.25352 -0.0909825 -6.45689e-05 0.993883 0.108812
-0.571605 0.408238 -0.457645 -6.9902e-05 0.992918 0.117862
-0.379848 -0.299535 -0.405558 -6.78494e-05 0.993249 0.11435
0.00158106 -0.165078 0.735933 -6.99266e-05 0.992872 0.117874
1.44612 0.365219 -0.36987 -6.75949e-05 0.993348 0.113956
-0.0359111 0.171083 0.64045 -6.697e-05 0.993421 0.112867
-0.391885 -0.410486 -0.384295 -7.07417e-05 0.992731 0.119262
-0.155763 -0.0411159 0.00610563 -7.15386e-05 0.992575 0.120606
-0.0288827 -0.183522 0.538478 -6.90797e-05 0.993058 0.116461
-0.138379 0.0522369 0.262987 -7.11252e-05 0.992647 0.119902
0.148706 0.0750676 1.24687 -6.90116e-05 0.99304 0.116323
0.0577777 0.0583899 1.53416 -6.43762e-05 0.993911 0.10848
-0.427746 -0.325963 -0.293071 -6.92136e-05 0.99304 0.116693
0.952434 -0.238501 -0.234282 -6.91958e-05 0.993054 0.11667
-0.000867064 0.243172 1.64261 -6.86747e-05 0.993112 0.11576
-0.331997 -0.242701 -0.806276 -7.21999e-05 0.992495 0.121757
-0.00121526 0.0735984 1.67098 -7.13504e-05 0.992656 0.12032
-1.11115 0.422165 -0.294388 -7.09332e-05 0.992716 0.119601
1.37676 0.395394 -0.283068 -6.71518e-05 0.99346 0.113227
-0.542781 -0.290305 0.0231217 -7.05574e-05 0.992748 0.118938
0.417214 -0.464558 -0.440983 -6.64805e-05 0.99354 0.112058
-0.00241863 0.419594 1.63611 -6.47488e-05 0.99384 0.10911
-0.369562 -0.303082 -0.0697201 -7.26967e-05 0.992356 0.122565
0.0452957 0.145137 0.942809 -6.44797e-05 0.993896 0.108659
0.00286054 0.146255 0.914375 -6.67e-05 0.993484 0.112419
-0.217541 0.354127 -0.1408 -6.95596e-05 0.992994 0.117291
-0.202743 0.00382188 1.60252 -6.59852e-05 0.993639 0.111224
0.898401 -0.280094 0.0248503 -6.7665e-05 0.993307 0.114055
0.055229 -0.272899 0.111075 -6.58594e-05 0.993648 0.111001
-1.27112 0.384327 0.00726086 -7.09987e-05 0.992729 0.11973
-0.137929 0.172036 0.188041 -6.79412e-05 0.993327 0.114574
-0.382383 -0.251149 -0.169197 -6.57879e-05 0.993664 0.110882
0.343601 0.361848 -0.0767697 -6.56853e-05 0.993703 0.110722
-0.120521 0.114101 0.126498 -6.60262e-05 0.993631 0.111293
0.036919 0.349711 -0.0780155 -6.82655e-05 0.99324 0.115104
1.19255 -0.194636 -0.372992 -6.84205e-05 0.993153 0.115324
0.128768 0.393052 -0.129352 -6.47366e-05 0.993823 0.109075
-0.338797 0.359296 -0.0765357 -6.3863e-05 0.994011 0.107614
-0.182694 -0.247582 -0.109046 -7.32335e-05 0.992258 0.123475
1.12296 -0.226761 -0.432594 -7.248e-05 0.992399 0.1222
-0.158527 -0.0992701 -0.0643287 -7.14489e-05 0.992635 0.120485
-0.957233 -0.283566 -0.435747 -6.35668e-05 0.994037 0.107091
0.971502 -0.312369 0.119705 -6.71912e-05 0.993388 0.113247
-0.286107 0.421635 -0.311328 -6.71856e-05 0.993442 0.113276
-0.130966 -0.221001 -0.293279 -7.05716e-05 0.992803 0.119003
0.35894 -0.273558 -0.419059 -6.94069e-05 0.99298 0.117002
-1.51739 -0.247565 -0.235945 -6.32579e-05 0.994108 0.106578
-1.17817 0.222034 -0.112603 -6.35559e-05 0.994038 0.107072
-1.23064 0.400306 -0.168413 -6.84667e-05 0.99315 0.115407
0.408599 -0.660546 -0.373442 -6.76502e-05 0.993332 0.114046
0.354965 -0.00515799 1.41361 -6.39757e-05 0.993969 0.10779
-1.03522 -0.302612 -0.178515 -7.34087e-05 0.992254 0.123792
-1.51834 0.354732 -0.0354759 -6.8582e-05 0.993144 0.115613
-0.00450042 0.205673 1.57594 -7.26314e-05 0.992391 0.12247
0.0869319 -0.0910057 0.837946 -7.15992e-05 0.992567 0.120711
-0.319708 -0.184916 -0.810551 -7.33042e-05 0.99227 0.123613
0.524857 -0.261109 -0.0615422 -6.58571e-05 0.993664 0.111008
0.00296429 0.145919 0.609214 -6.76753e-05 0.993296 0.114065
-0.353464 0.347177 -0.533141 -6.87352e-05 0.993095 0.115858
0.000938472 0.269017 1.81354 -6.62616e-05 0.993555 0.111669
1.33878 0.357731 -0.033615 -6.63978e-05 0.993575 0.111932
1.36419 -0.288134 -0.477298 -7.17818e-05 0.992575 0.12105
-0.496171 0.395096 -0.359704 -6.98891e-05 0.99292 0.11784
-0.388903 -0.412345 -0.404321 -6.58583e-05 0.993628 0.110984
-0.292996 0.000358579 1.63261 -7.11918e-05 0.992671 0.120041
0.000562228 0.120225 1.58736 -6.69706e-05 0.993467 0.112901
-0.0741766 0.143541 -0.47892 -6.64416e-05 0.993518 0.111971
0.0341632 -0.553225 -0.43049 -6.93758e-05 0.650531 0.116948
-0.105763 0.145394 0.701566 -6.37245e-05 0.425247 0.107396
0.11257 -0.198786 0.359958 -7.18229e-05 0.747005 0.121084
1.31407 -0.258842 0.106589 -5.75234e-05 0.147049 0.0969099
1.30063 0.356579 -0.402861 -6.54847e-05 0.52098 0.110376
-0.154526 -0.13794 -0.0454563 -6.76961e-05 0.605307 0.114113
-0.464953 0.00204643 1.38292 -6.89831e-05 0.631632 0.116284
-1.14667 0.331875 -0.457303 -6.79948e-05 0.579933 0.114611
0.445955 0.335998 -0.529722 -6.21896e-05 0.353227 0.1048
0.836128 0.392401 -0.260271 -6.54457e-05 0.476536 0.110302
-1.16397 -0.245514 -0.257214 -6.72915e-05 0.585328 0.113429
-1.37607 -0.244446 -0.0298928 -7.13725e-05 0.752792 0.120327
0.21131 -0.260042 0.00187282 -7.32821e-05 0.832276 0.123555
-0.0670053 -0.0670934 1.15517 -6.82611e-05 0.638285 0.11507
0.135418 -0.167865 0.0908862 -6.18419e-05 0.324326 0.10421
1.27739 -0.274436 -0.0194043 -5.70066e-05 0.123782 0.0960359
0.255483 0.385107 -0.483068 -7.58947e-05 0.986738 0.12798
1.51085 0.367186 0.00775767 -6.16231e-05 0.332843 0.103843
-1.32181 0.318732 -0.0741282 -7.32981e-05 0.814065 0.123579
0.0849647 -0.237983 -0.759756 -5.8194e-05 0.149021 0.0980388
-0.119594 -0.11631 0.790838 -5.97834e-05 0.230982 0.100728
-0.641821 0.386972 -0.0141349 -5.07237e-05 -0.168561 0.085409
0.147844 0.00272648 1.56557 -6.90566e-05 0.682157 0.116417
1.18914 -0.00665537 -0.249772 -6.0835e-05 0.297587 0.10251
-0.850143 -0.312734 -0.398033 -5.34376e-05 -0.0408033 0.0899995
-0.84714 0.337433 -0.231097 -5.97872e-05 0.224666 0.100734
0.486403 0.353321 -0.582145 -7.02977e-05 0.723635 0.118513
0.0070619 0.379013 1.68494 -7.16953e-05 0.781459 0.120876
0.294724 -0.244242 -0.325059 -7.17275e-05 0.777409 0.120929
0.376322 0.360745 -0.220545 -6.39739e-05 0.442641 0.107819
1.32398 -0.266756 -0.153081 -7.27713e-05 0.812817 0.122692
1.55856 -0.342494 -0.240097 -5.58006e-05 0.0637965 0.0939953
-1.17545 0.348142 -0.298576 -6.8643e-05 0.632823 0.115712
0.716559 -0.296109 -0.098855 -7.50684e-05 0.944153 0.126582
0.184276 0.353863 -0.317714 -7.16528e-05 0.766011 0.120801
1.14549 -0.24381 -0.379331 -6.37495e-05 0.394019 0.107433
-0.119356 0.35701 -0.00215225 -6.31763e-05 0.400973 0.106469
0.622256 -0.274486 -0.00450807 -7.10151e-05 0.721486 0.11972
-0.134908 -0.278784 0.0975469 -6.02678e-05 0.250704 0.101547
-1.12973 0.373986 -0.386662 -6.92737e-05 0.635447 0.116774
1.17051 0.110943 -0.43102 -6.90442e-05 0.641527 0.116389
-0.00190843 0.0951811 1.66913 -5.56356e-05 0.0586648 0.0937168
-0.142229 0.000271228 0.519677 -6.44087e-05 0.436039 0.10855
-0.268468 -0.00135773 1.69275 -7.39662e-05 0.863871 0.124712
-0.577543 -0.282419 -0.0812675 -4.97435e-05 -0.219047 0.0837502
1.19196 0.17704 -0.426655 -5.09896e-05 -0.155072 0.0858589
0.0325187 -0.169578 0.627464 -7.62212e-05 0.947506 0.128523
0.132922 -0.000930316 1.61677 -5.68748e-05 0.0968622 0.0958092
0.33299 -0.305325 -0.123638 -7.07147e-05 0.711646 0.119213
-1.1748 -0.287391 -0.0508852 -6.13942e-05 0.296932 0.103451
0.0606078 -0.210775 -0.571446 -5.40236e-05 -0.0151534 0.0909904
1.35672 -0.299315 -0.0873279 -7.31234e-05 0.836598 0.123289
0.139863 -0.0519189 -0.321134 -7.26855e-05 0.808529 0.122547
-0.658207 0.367339 -0.0680192 -7.53251e-05 0.906869 0.127007
-1.1976 0.37005 -0.00638306 -6.96191e-05 0.648914 0.117357
1.21752 -0.327161 -0.380007 -5.38283e-05 -0.0354429 0.0906579
0.242588 0.131251 -0.812295 -6.15074e-05 0.300364 0.103642
1.14422 0.358701 -0.511654 -5.29813e-05 -0.0639883 0.0892275
0.136579 -0.0314226 0.126673 -5.49693e-05 0.0102186 0.0925866
1.06167 -0.240817 0.0570792 -6.18086e-05 0.338526 0.104156
0.1697 -0.309074 -0.22417 -6.08276e-05 0.3007 0.102498
-0.542609 -0.318822 -0.410721 -7.04146e-05 0.747213 0.118714
0.901108 0.35537 -0.155382 -5.31686e-05 -0.0604814 0.0895432
-0.3029 0.3407 -0.452081 -7.52797e-05 0.972589 0.126943
-0.864606 0.373965 -0.0478735 -6.4435e-05 0.426894 0.108592
0.219883 -0.243142 -0.187243 -7.63728e-05 0.956674 0.128779
-0.202727 -0.297531 -0.191517 -6.22841e-05 0.337801 0.104956
0.397555 -0.592387 -0.381851 -7.43366e-05 0.885227 0.125339
0.129935 0.0482772 0.253969 -7.39453e-05 0.846969 0.124674
-1.20555 -0.279591 0.0815026 -7.45266e-05 0.865145 0.125656
1.35357 0.311907 0.0101616 -6.46338e-05 0.468407 0.108935
-0.143306 -0.108105 -0.352901 -6.16801e-05 0.338131 0.10394
-0.79116 -0.250839 -0.382072 -7.49137e-05 0.906202 0.126315
1.25847 0.434297 -0.322364 -7.23361e-05 0.782653 0.121954
-0.148546 0.380727 -0.528066 -6.53519e-05 0.478626 0.110145
-0.765614 -0.321995 -0.366245 -5.55837e-05 0.0544697 0.0936287
-0.0498747 -0.0504518 1.34232 -5.8577e-05 0.173912 0.0986879
0.239157 -0.322025 -0.387011 -5.47055e-05 0.0142953 0.0921433
-0.3113 0.337913 -0.182923 -7.29597e-05 0.850092 0.123016
-0.907554 -0.278299 -0.42464 -7.40514e-05 0.857259 0.124855
-1.17862 -0.320754 -0.450799 -6.73627e-05 0.583197 0.113548
-1.3044 -0.342098 -0.084232 -7.37121e-05 0.8431 0.124281
0.426184 -0.0236504 -0.188946 -5.80915e-05 0.166925 0.0978695
-0.0236983 -0.184959 0.490481 -7.46764e-05 0.871391 0.125909
-1.62133 0.308962 -0.3525 -5.39482e-05 -0.0261115 0.0908615
-0.209533 -0.250457 -0.341869 -6.83329e-05 0.612072 0.115186
0.0753806 0.348102 0.00513337 -7.73518e-05 0.986255 0.130432
-0.00139239 -0.0615395 -0.482958 -6.08263e-05 0.298739 0.102496
-1.11718 0.35375 -0.535087 -7.32903e-05 0.855665 0.123573
0.471632 0.370117 -0.498305 -7.38818e-05 0.882036 0.124574
0.752451 -0.328464 -0.39647 -7.09995e-05 0.724716 0.119694
-0.0350233 -0.257966 -0.713076 -6.56795e-05 0.528542 0.110705
1.48498 -0.311244 -0.266001 -0.0464184 0.712434 0.118247
-0.349449 -0.277708 -0.468464 -0.0734458 0.225904 0.0983965
0.561832 -0.287401 -0.435791 -0.0800713 0.111975 0.0937382
0.0368119 0.149279 0.787663 -0.0603136 -0.0478512 0.0881772
-0.288728 -0.516918 -0.365312 -0.0260961 0.349311 0.104789
0.0169076 -0.000140585 -0.494531 -0.053444 0.982384 0.121965
0.148596 0.088191 -0.154978 -0.057529 0.982591 0.113763
-0.0942734 -0.226181 -0.0130096 -0.0376448 0.985332 0.122252
1.34158 -0.243256 0.0283305 -0.00213882 0.99159 0.125977
-0.150527 -0.193827 -0.0222528 -0.012042 0.99025 0.121541
0.0827119 0.0393745 -0.711804 -0.0302751 0.98715 0.118678
1.04706 0.354651 -0.205568 -0.021312 0.987961 0.126063
0.0792672 0.186881 -0.471202 -0.112493 0.972539 0.111052
0.99573 -0.23576 -0.13408 -0.00520983 0.992192 0.116076
1.29637 0.331994 -0.226224 -0.0995163 0.974308 0.116761
0.110188 -0.244626 -0.416421 -0.145839 0.966272 0.110817
-1.02441 -0.316752 -0.00113918 -0.0198225 0.990066 0.102618
0.149707 0.0556445 -0.3373 -0.141415 0.96767 0.0600074
0.00321844 -0.202334 0.269622 -0.0206559 0.991121 0.0863999
0.243332 -0.246102 -0.300429 -0.107978 0.975187 0.0538309
-0.150407 0.0534683 -0.469574 -0.0399551 0.987321 0.0828694
-0.0732653 0.114613 -0.714678 -0.101937 0.975452 0.0671202
-1.30834 -0.221356 -0.308958 -0.0871494 0.978755 0.0646632
-0.48491 0.359489 -0.138817 -0.00626665 0.988933 -0.111265
0.649768 -0.312394 0.168132 -0.0321299 0.985367 -0.0474158
0.0722065 -0.072872 0.846629 -0.0448881 0.979806 -0.117815
0.128989 0.370071 -0.0119496 -0.0883969 0.972098 -0.0561998
-0.703597 0.350011 -0.453204 -0.0659097 0.975882 -0.0933996
0.537789 0.36034 -0.0370345 -0.0408626 0.985481 0.00948665
-0.159258 0.105515 -0.351864 -0.0129646 0.44447 -0.770806
0.708964 -0.256942 -0.182223 -0.0255682 0.446573 -0.705262
1.23039 -0.292495 0.0113853 -0.0104171 -0.172327 -0.770602
-0.4856 0.333407 -0.513638 -0.0143215 -0.616718 -0.723968
-0.154843 0.00138253 1.5575 -0.0125143 -0.467492 -0.740144
0.178793 -0.00157235 1.294 -0.000806038 -0.994004 -0.00631724
0.00244362 0.14634 1.67043 -0.00558729 -0.988642 -0.0842724
1.27662 -0.259373 -0.114822 -0.0489509 -0.990512 0.00861644
-0.0625334 0.127679 1.14596 -0.00797498 -0.995313 0.0248761
-0.908109 -0.295653 -0.143431 -0.030698 -0.996236 0.0613594
-0.112781 0.396452 -0.295621 -0.00341005 -0.997895 0.0615112
-1.29781 0.419595 -0.152031 -0.0226414 -0.996659 0.0624697
-0.218397 0.0284081 -0.598701 -0.0133809 -0.997273 0.061712
-0.326689 0.336638 -0.137514 -0.00374794 -0.997882 0.0613848
0.20086 0.0685712 1.44932 -0.0231944 -0.996726 0.0608571
-1.00741 0.381434 -0.273304 -0.0107844 -0.997815 0.05802
1.34935 0.386095 -0.393449 -0.000782575 -0.998481 0.0543555
-0.147043 0.358895 -0.109342 -0.0048392 -0.99794 0.0604574
-0.100579 -0.00117 1.64814 -0.00178441 -0.998056 0.0608305
-0.113491 0.15827 0.719691 -0.0175051 -0.997661 0.0555024
-1.38009 -0.247786 0.039144 -0.0179995 -0.997715 0.0542008
1.5159 -0.221613 -0.175673 -0.0316751 -0.645151 0.0667084
0.215047 -0.350042 -0.223958 -0.0037011 -0.949317 0.054985
0.351829 0.369307 -0.321858 -0.0262418 -0.661456 0.0661229
0.168482 0.0843288 1.45844 -0.0314516 -0.620557 0.0676834
0.0783316 0.000853844 0.85085 -0.0197391 -0.779789 0.0615142
-0.957726 0.334873 -0.0368333 -0.0387079 -0.63651 0.0669734
0.230433 -0.00160322 1.7136 -0.00124215 -0.835818 0.0595003
-0.290605 -0.00024294 1.59957 -0.0129657 -0.841562 0.0591453
-0.41902 0.404127 -0.204219 -0.0222495 -0.696573 0.0647777
0.620179 -0.294482 0.0249194 -0.00668065 -0.900104 0.0568987
0.157061 -0.000221756 1.62867 -0.0381046 -0.780207 0.0421948
0.0353191 -0.197989 0.261003 -0.038427 -0.869883 0.0570415
0.527808 0.310885 -0.454679 -0.0888266 -0.30779 0.0598454
0.149119 -0.065444 -0.399141 -0.118494 0.119396 0.0627376
1.48765 0.318477 -0.459697 -0.101743 -0.375569 0.0630035
-0.157821 -0.218829 -0.422241 -0.138319 -0.498044 0.0583156
1.59254 -0.224424 -0.373526 -0.0973062 -0.977243 0.0606655
-0.146584 0.0523134 0.274713 -0.129178 -0.498801 0.0584695
0.517353 -0.314455 -0.11628 -0.102824 -0.936701 0.0604328
1.43235 -0.183696 -0.153632 -0.128507 -0.732928 0.0592972
-0.488929 -0.00291292 1.50679 -0.228479 -0.472303 -0.0171297
-0.886594 0.387401 0.0347559 -0.279179 0.127089 0.00668596
-0.131434 0.0504745 0.54822 -0.305178 0.458337 0.0227706
0.264064 -0.509214 -0.387383 -0.199665 0.89781 -0.302573
-0.1301 -0.00210003 -0.463034 -0.18052 0.866084 -0.401696
-0.656419 0.354613 -0.502581 -0.201948 0.908404 -0.270395
-0.18581 0.406546 -0.414939 -0.179937 0.948677 -0.146404
-1.38683 0.349757 -0.0610435 -0.181596 0.948999 -0.135667
-1.37233 -0.241269 0.0092142 -0.311573 0.932348 -0.0740516
0.231822 -0.37758 -0.413699 -0.243571 0.94427 -0.0464455
-0.160384 0.0544267 -0.17962 -0.206654 0.948299 -0.0769989
-0.197578 -0.238283 -0.43333 -0.241154 0.949287 0.0568118
0.0822705 -0.16226 0.804262 -0.261002 0.946068 0.0556916
