0.0169359 -0.0486511 -0.760834 0.594719 -0.658688 -0.103567
0.0253303 -0.0255283 -0.721667 0.974951 0.118686 -0.000900539
0.0214319 -0.0136093 -0.725492 0.81075 0.532894 -0.00895692
0.021599 -0.0138784 -0.777722 0.809841 0.493352 -0.0321267
0.0147403 -0.00576326 -0.738948 0.580317 0.790203 -0.00260089
0.000164871 0.000130545 -0.752505 0.0307477 0.92927 -0.0469482
0.239719 0.131129 -0.804928 0.00146216 0.0463313 0.735369
0.234964 0.120846 -0.804818 0.0937504 -0.130298 0.940371
0.0709717 0.0444076 -0.804825 -0.371341 0.404862 0.488456
0.0562736 0.0233613 -0.803896 -0.343141 0.327261 0.578391
0.0265888 0.0166619 -0.815851 -0.315669 0.159173 0.571985
0.288882 0.126469 -0.812157 0.248296 -0.3917 0.845675
0.13965 0.0584632 -0.805129 0.170929 -0.289065 0.911845
0.322488 0.146986 -0.811556 0.250185 -0.385372 0.847323
0.198059 0.0718974 -0.813413 0.240576 -0.403847 0.844006
0.0909821 0.031223 -0.80358 0.247721 -0.314028 0.848597
0.0410244 -0.00266028 -0.808338 -0.239905 -0.156372 0.859591
0.020876 0.000310742 -0.811662 -0.128085 -0.00897021 0.936112
0.284675 0.103907 -0.821655 0.349664 -0.518044 0.579149
0.269967 0.0901801 -0.827393 0.311089 -0.454936 0.25871
0.14795 0.0252404 -0.822569 0.268356 -0.467465 0.647553
0.120148 -0.00182941 -0.836477 0.110561 -0.472264 -0.455865
0.133123 0.0164171 -0.823605 0.248235 -0.506056 0.494954
0.227829 0.0585434 -0.835641 0.185965 -0.289654 -0.260492
0.383353 0.151434 -0.831952 0.169794 -0.222873 -0.358301
0.13484 0.00578276 -0.837269 0.144443 -0.352801 -0.35667
0.0383912 -0.0368381 -0.823837 0.100883 -0.251864 -0.618554
0.0230636 -0.0546055 -0.820334 0.20954 -0.360147 -0.00427354
0.236981 0.0911457 -0.833103 -0.163408 0.336698 -0.90381
0.237028 0.106395 -0.826543 -0.211531 0.426821 -0.853586
0.2069 0.0905797 -0.826813 -0.207859 0.418527 -0.854879
0.242367 0.0969924 -0.831754 -0.173608 0.356052 -0.893618
0.277062 0.11746 -0.830471 -0.184962 0.378949 -0.884691
0.0979153 0.0405906 -0.823969 -0.295545 0.561787 -0.610566
0.0960003 0.0137321 -0.838089 -0.106439 0.251916 -0.881095
0.012013 -0.0306621 -0.828543 0.0497792 -0.0689951 -0.970702
0.278957 0.148399 -0.814295 -0.153678 0.385559 -0.515879
0.124946 0.0718687 -0.812986 -0.214215 0.433687 -0.408177
-0.409774 -0.221002 -0.808458 -0.323349 0.531616 -0.395734
-0.0627811 -0.0422553 -0.806662 -0.0197631 0.0887111 0.618313
-0.377125 -0.222841 -0.8101 0.129434 -0.306236 0.900504
-0.325283 -0.207328 -0.814679 0.207431 -0.411654 0.870542
-0.392963 -0.250192 -0.818449 0.207722 -0.419821 0.860542
-0.282213 -0.167298 -0.806783 0.149655 -0.324236 0.904605
-0.165842 -0.102114 -0.803974 0.187622 -0.365113 0.903298
-0.0653129 -0.0592898 -0.796591 0.141026 -0.215224 0.824752
-0.0175167 -0.0450616 -0.811378 0.0501797 -0.115929 0.959649
-0.323771 -0.220403 -0.821165 0.227443 -0.465317 0.673818
-0.0654982 -0.0885847 -0.814809 0.374754 -0.456848 0.314974
-0.319939 -0.2279 -0.833394 -0.0673996 -0.0568052 -0.875845
-0.233604 -0.185296 -0.835246 -0.0238818 -0.0659082 -0.847652
-0.335116 -0.214946 -0.831623 -0.140619 0.107658 -0.904458
-0.400958 -0.23801 -0.825612 -0.176506 0.176007 -0.886869
-0.310055 -0.197093 -0.830104 -0.176702 0.217879 -0.895784
-0.0993788 -0.0887257 -0.835696 -0.217258 0.274688 -0.883457
-0.410968 -0.22334 -0.81239 -0.344066 0.561643 -0.697089
-0.38426 -0.207042 -0.811213 -0.369851 0.621405 -0.653652
-0.269819 -0.146202 -0.815816 -0.351688 0.609549 -0.676672
-0.26055 -0.142486 -0.817489 -0.332875 0.572471 -0.706729
-0.304439 -0.164733 -0.814558 -0.355381 0.609383 -0.672637
-0.125066 -0.0553683 -0.804889 -0.165708 0.279684 0.246556
-0.0389095 -0.027262 -0.828384 -0.129924 0.235988 -0.874458
-0.0037486 0.000569905 -0.755435 -0.0844897 0.931444 -0.0569993
-0.00354695 0.000600676 -0.767874 -0.0931205 0.921869 -0.0667001
-0.0260739 -0.0107874 -0.827378 -0.448401 0.465496 -0.352059
-0.0290288 -0.0404922 -0.821929 -0.537553 -0.168801 -0.42963
-0.0197559 -0.0519428 -0.800302 -0.411688 -0.497419 -0.347678
-0.0182728 -0.0527165 -0.743324 -0.459393 -0.719587 -0.137467
-0.0201448 -0.0517667 -0.725076 -0.51148 -0.757298 -0.0756161
-0.00868054 -0.0563921 -0.774723 -0.192049 -0.734149 -0.233092
0.000568682 -0.0566804 -0.831723 -0.0118045 -0.599659 -0.392872
0.0200582 -0.0110404 -0.828266 0.747395 0.559131 -0.0527154
0.00844736 -0.00209706 -0.813012 0.484988 0.8574 -0.00892505
0.0203699 -0.0185612 -0.832507 0.710725 0.313396 -0.094063
0.0136349 -0.0263014 -0.832511 0.49755 0.170175 -0.16918
0.0077664 -0.0410805 -0.832514 0.259067 -0.207852 -0.277177
0.0126984 -0.0203638 -0.832511 0.529204 0.336988 -0.140965
-0.0248079 -0.0455192 -0.832533 -0.434687 -0.243281 -0.462918
-0.00456417 0.184642 1.59295 -0.979989 0.00997258 -0.0169697
-0.00456111 0.203383 1.58776 -0.99177 0.00579499 -0.00571712
-0.00454188 0.293808 1.55552 -0.814462 0.0783176 -0.165894
-0.00455034 0.241944 1.56985 -0.780306 0.0904939 -0.198458
-0.00453033 0.328385 1.53641 -0.524808 0.193862 -0.430353
-0.00454615 0.266095 1.56278 -0.78306 0.0900292 -0.19534
-0.0045137 0.417827 1.50838 -0.475455 0.215713 -0.473354
-0.0045421 0.28253 1.55601 -0.721191 0.114943 -0.251605
-0.00453196 0.0760883 1.53571 -0.900398 -0.0435261 -0.00333341
-0.00453541 0.0888118 1.54236 -0.931407 -0.0226985 -0.0106588
-0.00451167 0.0834304 1.50142 -0.90215 -0.0288348 -0.0189396
-0.00458493 0.0792775 1.62656 -0.945929 -0.0445578 0.0214477
-0.00452668 0.106473 1.52848 -0.964659 0.00783373 -0.027729
-0.00455205 0.0954299 1.57125 -0.9583 -0.0136477 -0.00688048
-0.00445912 0.106438 1.41285 -0.915627 0.0158802 -0.0622122
-0.00460318 0.0834328 1.65734 -0.942815 -0.0493819 0.0275371
-0.00460949 0.107832 1.66887 -0.975863 -0.0191802 0.0130633
-0.00460226 0.0905474 1.65609 -0.954932 -0.0385701 0.0219503
0.00873317 0.214607 1.75436 0.914239 0.00468814 0.0587564
0.00875035 0.342458 1.72412 0.799405 0.0839868 0.145585
0.00877954 0.414233 1.67391 0.881576 0.0517443 0.0864523
0.00878177 0.444999 1.66986 0.839692 0.0782864 0.11783
0.00877632 0.451788 1.67908 0.785822 0.107504 0.157585
0.00872859 0.184159 1.76238 0.937974 -0.0123058 0.0407359
0.0088057 0.461128 1.62905 0.988478 0.00282274 0.00867034
0.00878137 0.444953 1.67054 0.836793 0.0797969 0.119962
0.00878086 0.479658 1.67113 0.766788 0.12165 0.1721
0.00876661 0.474269 1.6954 0.670191 0.171407 0.243064
0.00875665 0.328804 1.71352 0.872706 0.0435673 0.0914088
0.00874487 0.280173 1.73393 0.877049 0.0339956 0.0873204
0.00876247 0.458844 1.70257 0.668477 0.169989 0.244041
0.00873228 0.354505 1.75473 0.640945 0.168743 0.262379
0.00873688 0.260823 1.74767 0.854001 0.0431565 0.103921
0.00874138 0.418995 1.73874 0.586258 0.207048 0.303795
0.00878068 0.457739 1.67161 0.807236 0.0971882 0.141941
0.00300539 0.156214 1.81096 0.524112 -0.196027 0.425597
0.00708817 0.454461 1.75377 0.401848 0.294781 0.46074
0.00841817 0.302231 1.80827 0.528838 0.188014 0.41147
0.00695528 0.405403 1.77133 0.424262 0.266831 0.46203
0.00882165 0.503046 1.60417 0.0638717 0.877059 -0.0300346
-0.00250588 0.489559 1.50514 -0.753892 0.0825581 -0.0372149
0.0030432 0.495902 1.5229 -0.345185 0.472828 -0.116003
0.0032521 0.134697 1.35292 0.128985 0.0364608 -0.0907084
0.00797199 0.148063 1.35817 0.762247 0.0388227 -0.0949988
0.00886211 0.10006 1.53479 0.959959 -0.0352969 0.0194514
0.00885469 0.100744 1.54714 0.965323 -0.0305677 0.0169252
0.00875701 0.105475 1.71355 0.94526 -0.0460241 0.0287494
0.00876742 0.0861747 1.6961 0.870327 -0.112766 0.0633037
0.00877508 0.109411 1.6821 0.980351 -0.0157599 0.0115125
0.00878096 0.0607729 1.67342 0.771548 -0.200738 0.108862
0.00890778 0.311618 1.45797 0.428056 0.215657 -0.528671
0.00895479 0.165755 1.37936 0.851377 0.0560398 -0.136936
0.00891044 0.221688 1.45352 0.684773 0.118859 -0.291108
0.00890622 0.119657 1.46058 0.974859 0.00947999 -0.0226674
0.00889154 0.416585 1.48514 0.126278 0.329445 -0.807932
0.0088758 0.134933 1.51145 0.926385 0.0277579 -0.0675249
0.00895525 0.197347 1.37859 0.761421 0.0899586 -0.22018
0.00885541 0.159522 1.54556 0.852996 0.05543 -0.135438
0.00890685 0.28988 1.45953 0.489854 0.192356 -0.471484
0.00891568 0.135277 1.44477 0.931882 0.0256848 -0.0624375
0.00884342 0.131827 1.56561 0.929976 0.0264041 -0.0642023
0.00891901 0.335587 1.4392 0.361574 0.240725 -0.590193
0.00888852 0.288074 1.49018 0.492025 0.191537 -0.469475
0.00889102 0.367021 1.486 0.267444 0.276217 -0.677299
0.00887448 0.342667 1.51366 0.334162 0.251061 -0.615559
0.00888557 0.208762 1.49511 0.717571 0.106493 -0.260758
0.00894052 0.25417 1.40322 0.597092 0.15192 -0.372247
0.00889777 0.367171 1.47471 0.268115 0.275964 -0.676678
0.00890681 0.221001 1.4596 0.686143 0.118343 -0.289841
0.00890038 0.167003 1.47035 0.838982 0.0607139 -0.148406
0.00891645 0.289863 1.44348 0.491464 0.191748 -0.469994
0.00887396 0.29794 1.51452 0.461544 0.20303 -0.497682
0.00890065 0.367963 1.4699 0.266324 0.27664 -0.678335
0.00888284 0.316705 1.49968 0.409509 0.22265 -0.545834
0.00894291 0.251704 1.39922 0.604508 0.149124 -0.365385
0.00894164 0.16596 1.40135 0.848659 0.0570647 -0.139451
0.00890623 0.187422 1.46056 0.781743 0.0822963 -0.201374
0.00886527 0.140154 1.52906 0.909796 0.0340129 -0.082876
0.00888084 0.399404 1.50302 0.173507 0.311637 -0.764227
0.00883487 0.149024 1.57991 0.879579 0.0454069 -0.110839
0.00889735 0.271364 1.47541 0.54108 0.17304 -0.42408
0.00888611 0.157599 1.49421 0.863464 0.0514826 -0.125751
0.00894268 0.192115 1.39961 0.774289 0.0851067 -0.208272
0.0088536 0.190681 1.54858 0.763905 0.0890227 -0.217882
-0.00444053 0.183093 1.38204 -0.729157 0.106838 -0.247926
-0.00443201 0.126958 1.36701 -0.877879 0.0460955 -0.113294
-0.00453057 0.300358 1.53683 -0.449982 0.222688 -0.499613
-0.00448333 0.33026 1.45637 -0.348182 0.262958 -0.592513
-0.00448628 0.219513 1.4605 -0.650207 0.140101 -0.318818
-0.00451793 0.268017 1.51496 -0.532293 0.188874 -0.425212
-0.00451204 0.281792 1.50502 -0.492319 0.204999 -0.461513
-0.00455683 0.116643 1.58018 -0.960321 0.0156191 -0.0368459
-0.00453332 0.21866 1.54086 -0.67304 0.131968 -0.29747
-0.00449515 0.445964 1.47753 -0.0391358 0.389036 -0.872362
-0.00447825 0.200822 1.44663 -0.697463 0.120669 -0.276114
-0.00447472 0.340946 1.44175 -0.31541 0.276084 -0.622327
-0.00451075 0.172326 1.50191 -0.789017 0.0842063 -0.192705
-0.00453183 0.121705 1.5375 -0.935672 0.0250348 -0.05953
-0.00445976 0.162536 1.41472 -0.793366 0.0811782 -0.189479
-0.00444557 0.21338 1.3909 -0.649109 0.139543 -0.320384
-0.00455213 0.18993 1.57276 -0.759259 0.097339 -0.219087
-0.00449207 0.1649 1.46993 -0.801035 0.0788538 -0.182078
-0.00455785 0.16602 1.58233 -0.826682 0.0700376 -0.157917
-0.00457313 0.107195 1.60796 -0.993088 0.00268454 -0.00692818
-0.0045171 0.241262 1.51334 -0.604589 0.159428 -0.359718
-0.00448187 0.119698 1.45215 -0.919339 0.0304503 -0.075029
-0.00456957 0.138036 1.60213 -0.907786 0.0373158 -0.0842665
-0.00451915 0.135392 1.51596 -0.892977 0.0420999 -0.0983921
-0.00455459 0.136478 1.57651 -0.905482 0.0378843 -0.086565
-0.00443381 0.162283 1.37039 -0.782738 0.084864 -0.199473
-0.00450279 0.265495 1.48908 -0.532538 0.188401 -0.425202
-0.0045547 0.11083 1.57649 -0.975177 0.00951952 -0.0234146
-0.00444723 0.118534 1.39295 -0.907392 0.0344587 -0.0863404
-0.00448005 0.167482 1.44942 -0.788781 0.0835446 -0.193348
-0.00445334 0.141245 1.40358 -0.848386 0.0586258 -0.139717
-0.00447201 0.198342 1.43594 -0.701473 0.118882 -0.272568
-0.00450078 0.12202 1.48446 -0.921277 0.0301281 -0.0730084
-0.00451475 0.302556 1.50982 -0.437112 0.227536 -0.511496
-0.00452062 0.254937 1.51947 -0.568989 0.174005 -0.391925
-0.00443442 0.15199 1.37135 -0.810955 0.073394 -0.173897
-0.00453686 0.169996 1.54651 -0.806732 0.0776401 -0.176287
-0.00455886 0.181363 1.58419 -0.785458 0.0868415 -0.195254
0.00876753 0.230758 1.69513 0.980758 -0.0150745 0.0116664
0.00879202 0.172536 1.65276 0.991197 -0.00689594 0.00566074
0.00877707 0.18107 1.67863 0.984823 -0.0118894 0.00932832
0.00877864 0.234227 1.6759 0.985496 -0.0113622 0.00893957
0.00879319 0.388164 1.65073 0.991697 -0.00650491 0.00536727
0.00874125 0.13617 1.7406 0.969556 -0.0238497 0.0181148
0.00876971 0.243159 1.69137 0.981686 -0.0143474 0.011132
0.00880887 0.345911 1.62361 0.998379 -0.00126998 0.00152329
0.0087967 0.311199 1.64466 0.993194 -0.00533174 0.00450777
0.00876028 0.217796 1.70767 0.977669 -0.0174941 0.0134441
0.00877088 0.199783 1.68933 0.982188 -0.0139535 0.0108439
0.00877101 0.303799 1.68911 0.98224 -0.0139132 0.0108113
0.00877449 0.296318 1.68309 0.983725 -0.0127502 0.0099573
0.00880092 0.262448 1.63736 0.99499 -0.00392425 0.00347534
0.00880628 0.349711 1.62809 0.997275 -0.00213443 0.00215814
0.00876589 0.184102 1.69797 0.980058 -0.0156222 0.0120701
0.00879684 0.213202 1.64442 0.993253 -0.00528518 0.00447641
0.0087885 0.226573 1.65885 0.989698 -0.0080706 0.006522
0.0087992 0.334453 1.64034 0.994256 -0.00449972 0.00389595
0.00880825 0.359567 1.62467 0.998117 -0.00147514 0.00167358
0.00878354 0.267133 1.66744 0.987581 -0.00972925 0.00773915
0.0087666 0.159594 1.69673 0.980364 -0.0153825 0.0118947
0.00880424 0.244661 1.63162 0.996405 -0.00281567 0.00266157
0.00881219 0.424633 1.61787 0.999794 -0.000161305 0.000706648
0.00877289 0.201422 1.68586 0.983043 -0.013284 0.0103521
0.0087832 0.258972 1.66801 0.987439 -0.00984021 0.00782089
0.0087585 0.22782 1.71075 0.976911 -0.0180882 0.0138801
0.00873294 0.174063 1.75497 0.966016 -0.0266235 0.0201512
-0.0046116 0.117073 1.67246 -0.976674 -0.0182821 0.0128772
-0.00458214 0.210334 1.62319 -0.997403 -0.00203379 0.000908333
-0.00466051 0.1796 1.75426 -0.942255 -0.0452624 0.0327504
-0.00458369 0.46342 1.62579 -0.996309 -0.00289295 0.00153985
-0.00458073 0.432448 1.62084 -0.998391 -0.00126086 0.000337828
-0.00463258 0.155066 1.70755 -0.96191 -0.0298556 0.021402
-0.00458258 0.203079 1.62393 -0.997093 -0.00227674 0.00108733
-0.00459046 0.357615 1.63711 -0.991549 -0.00662361 0.00428838
-0.00463577 0.175111 1.71288 -0.959667 -0.0316139 0.022697
-0.00457981 0.202853 1.61929 -0.999043 -0.000748166 -3.86042e-05
-0.00457876 0.247845 1.61754 -0.999782 -0.000169411 -0.000465149
-0.00458791 0.121303 1.63285 -0.993339 -0.00521926 0.0032552
-0.00459051 0.314375 1.6372 -0.991511 -0.0066529 0.00431019
-0.00465753 0.152856 1.74928 -0.944353 -0.0436177 0.031539
-0.00463659 0.221469 1.71425 -0.95909 -0.0320666 0.0230302
-0.00459922 0.288985 1.65176 -0.985383 -0.0114564 0.00784854
-0.00463221 0.18649 1.70693 -0.962169 -0.0296528 0.0212524
-0.00463563 0.272415 1.71265 -0.959764 -0.0315381 0.0226407
-0.00468832 0.270614 1.80167 -0.141792 0.12989 0.815696
-0.00467484 0.374067 1.7798 -0.0221657 0.307186 0.860089
-0.00464615 0.454882 1.73184 -0.172212 0.336869 0.694535
-0.00462015 0.432929 1.68742 -0.584652 0.126273 0.366828
-0.0046723 0.337829 1.77511 -0.161447 0.201565 0.764463
-0.00467216 0.337332 1.77487 -0.164735 0.199501 0.762018
-0.00467696 0.339935 1.78305 -0.0928674 0.234734 0.819758
-0.00466985 0.36487 1.77121 -0.115838 0.254315 0.787858
-0.00461531 0.45175 1.67938 -0.594949 0.144201 0.34854
-0.00464166 0.415958 1.7238 -0.345567 0.212805 0.572289
-0.00464744 0.478664 1.73426 -0.085968 0.403878 0.753047
-0.00466973 0.334754 1.77072 -0.204828 0.178498 0.730393
-0.00465406 0.364767 1.74437 -0.327862 0.15944 0.613559
-0.00467465 0.20975 1.77825 -0.62126 0.0215638 0.346563
-0.00464413 0.25402 1.72691 -0.922882 -0.0288162 0.0566984
-0.00463624 0.317084 1.71388 -0.779093 0.0113617 0.201403
-0.00465529 0.208011 1.74554 -0.940654 -0.0411197 0.0358521
-0.00468585 0.244368 1.79735 -0.29197 0.0924924 0.669445
-0.0046591 0.263172 1.75224 -0.642383 0.0276978 0.330162
-0.0046575 0.262443 1.74953 -0.671271 0.0219184 0.302015
-0.00467297 0.181604 1.77528 -0.769197 -0.0127195 0.20053
-0.00464535 0.348992 1.72943 -0.495242 0.0728996 0.47989
-0.00466189 0.25823 1.75693 -0.618591 0.0313934 0.352914
-0.00467344 0.213293 1.77624 -0.625395 0.021437 0.342818
-0.00467085 0.254695 1.77206 -0.489379 0.0559383 0.478285
-0.00468254 0.19464 1.79152 -0.558963 0.0308239 0.405971
-0.00469216 0.195597 1.80779 -0.39972 0.0620938 0.560891
-0.0046395 0.310852 1.71936 -0.753348 0.0151909 0.225954
-0.00468311 0.261159 1.79281 -0.263992 0.101178 0.697951
-0.00466406 0.175468 1.7602 -0.939167 -0.0470778 0.034777
-0.00468025 0.156616 1.78747 -0.759169 -0.0155597 0.208346
-0.00460793 0.489813 1.66595 -0.538441 0.267191 0.297543
-0.00457856 0.497017 1.61508 -0.760658 0.234727 0.00954128
-0.00454883 0.35933 1.56704 -0.989241 0.00859872 -0.00631712
-0.00457637 0.132794 1.6135 -0.999243 0.000606922 -0.000993671
-0.00457545 0.370646 1.61196 -0.998911 0.000870761 -0.00117053
-0.00456707 0.271893 1.59782 -0.995867 0.00330409 -0.00279059
-0.00454634 0.344483 1.56283 -0.988337 0.00932188 -0.00679866
-0.00455655 0.345884 1.58006 -0.992044 0.00635881 -0.00482532
-0.00453944 0.417913 1.55119 -0.985831 0.0113239 -0.00813229
-0.00455626 0.477506 1.57958 -0.991942 0.00643986 -0.00487993
-0.0045671 0.289303 1.59787 -0.995878 0.00329493 -0.00278458
-0.00457786 0.44398 1.61602 -0.999785 0.000171332 -0.000705075
-0.00455169 0.399433 1.57187 -0.990281 0.00776781 -0.00576395
-0.00457813 0.274378 1.61648 -0.999884 9.35406e-05 -0.000652452
-0.00457138 0.260545 1.60509 -0.997431 0.0020544 -0.00195827
-0.00454822 0.279527 1.56601 -0.989021 0.00877527 -0.00643432
-0.00457821 0.464469 1.61661 -0.999911 7.05302e-05 -0.000638042
-0.00455785 0.424542 1.58226 -0.992518 0.0059795 -0.00457309
-0.00457678 0.143896 1.6142 -0.999393 0.000486749 -0.000913692
-0.00454404 0.405212 1.55895 -0.987501 0.00998951 -0.00724357
-0.00455858 0.465379 1.58349 -0.992782 0.00576797 -0.00443241
-0.00457254 0.387719 1.60705 -0.997853 0.00171583 -0.00173341
0.00870226 0.234734 1.80448 0.77067 0.0495336 0.19634
0.00870206 0.300992 1.80723 0.549216 0.178999 0.392006
0.00871034 0.258098 1.79098 0.75604 0.0707241 0.194802
0.00871185 0.169212 1.79014 0.883868 0.00333601 0.0887158
0.00870538 0.196499 1.79979 0.843179 0.0141733 0.130935
0.00870898 0.1999 1.7941 0.839169 0.0227498 0.129117
0.00870552 0.231168 1.79898 0.793497 0.0416535 0.17114
0.00869516 0.166851 1.81626 0.883237 -0.0258718 0.112763
0.0087061 0.190143 1.79877 0.852467 0.0103638 0.122361
0.00195349 0.262454 1.82251 0.285879 0.181175 0.661602
0.00875399 0.483499 1.71694 0.468009 0.288426 0.346507
-0.000110313 0.492771 1.70379 -0.0603899 0.386907 0.396972
0.00885237 0.305412 1.55064 0.511938 0.184029 -0.451049
0.00885887 0.34268 1.53978 0.432099 0.214133 -0.524931
0.00882716 0.426605 1.59281 0.821925 0.0671448 -0.164198
0.00882812 0.240992 1.59119 0.810024 0.0716329 -0.175206
0.00883291 0.254258 1.58318 0.751149 0.0938322 -0.229688
0.00882109 0.425311 1.60294 0.896449 0.0390447 -0.0952352
0.00885665 0.310367 1.54348 0.459287 0.203881 -0.499771
0.00885183 0.277892 1.55154 0.518581 0.181524 -0.444901
0.00884801 0.26947 1.55793 0.565577 0.163804 -0.401412
0.0088166 0.411523 1.61047 0.95175 0.018193 -0.0440607
0.00881721 0.251027 1.60944 0.94421 0.0210366 -0.0510336
0.00884422 0.376684 1.56427 0.612122 0.146253 -0.358343
0.00881351 0.24594 1.61563 0.98971 0.0038803 -0.00892868
0.00881731 0.388049 1.60927 0.942921 0.0215221 -0.0522302
0.00883141 0.217505 1.5857 0.769696 0.0868392 -0.212524
0.00881336 0.138938 1.61588 0.991542 0.00318999 -0.0072306
0.00887556 0.401336 1.51185 0.226827 0.291532 -0.714886
0.0088188 0.364026 1.60678 0.924642 0.0284144 -0.0691442
0.00886448 0.457605 1.53038 0.363022 0.240179 -0.588856
0.00885225 0.329338 1.55084 0.51346 0.183455 -0.449642
0.00887284 0.431675 1.5164 0.260252 0.278929 -0.683956
0.00525121 0.450617 1.47703 -0.026369 0.373612 -0.895679
-0.00386264 0.447804 1.47592 -0.0337252 0.389879 -0.878039
-0.00246971 0.0598161 1.67846 -0.635974 -0.115898 0.0636928
-1.18403 -0.179311 -0.339266 0.561169 -0.165983 0.317404
-1.18411 0.105498 -0.198663 0.646204 0.0770075 -0.154338
-1.18729 -0.183322 -0.340503 0.183559 -0.372936 0.702771
-1.17966 -0.086717 -0.403557 0.967171 -0.0264534 0.000601771
-1.17967 -0.235227 -0.372546 0.98202 -0.0173175 0.000562003
-1.17966 -0.089237 -0.393382 0.987872 -0.00585961 0.000546328
-1.17965 0.0400602 -0.419439 0.976939 -0.0118202 0.00057561
-1.19325 0.0686154 -0.414358 -0.982549 -0.005109 -0.000521166
-1.19327 -0.189397 -0.381033 -0.971872 -0.025696 -0.000480811
-1.19327 -0.199856 -0.379631 -0.971331 -0.0266386 -0.000478767
-1.19325 0.130124 -0.423618 -0.98788 0.00258298 -0.000541313
-1.19325 0.0841105 -0.41568 -0.98175 -0.00531201 -0.000518147
-1.18656 -0.0781338 -0.390287 -0.00726246 -0.0115909 1.84218e-05
-1.18299 0.0408902 -0.406429 0.49482 0.00805765 0.000246103
-1.18484 -0.101881 -0.387065 0.240872 -0.00967626 0.000145882
-1.19214 0.0308486 -0.420457 -0.814392 0.0124639 -0.000490056
-1.19193 0.034296 -0.420925 -0.784389 0.0122866 -0.00047254
-1.17987 -0.168054 -0.0448553 0.963955 -0.0326274 0.000617172
-1.17987 -0.189452 -0.0392045 0.968743 -0.0285735 0.000603429
-1.18064 -0.214411 -0.0238536 0.877918 -0.00801483 0.000468376
-1.19321 0.0379185 -0.0715272 -0.938515 0.0141757 -0.000619891
-1.18691 -0.206267 -0.0402851 -0.0466567 -0.0204883 -3.08168e-05
-1.19002 0.0318377 -0.0707477 -0.482677 0.00644987 -0.000318809
-1.18913 -0.212276 -0.0589902 -0.973149 0.00669434 0.020258
-1.18472 0.204004 -0.372082 0.350598 0.218374 0.284838
-1.18741 -0.145037 -0.105947 -0.389642 0.0432079 0.0713374
-1.18499 0.0428702 -0.24922 0.398988 0.138921 0.184961
-1.18759 0.301982 -0.451937 -0.274396 -0.0870315 -0.120301
-1.1876 0.14356 -0.33387 -0.131467 -0.191525 -0.249495
-1.18599 -0.0953953 -0.151671 0.369122 -0.0812353 -0.0931956
-1.1859 -0.192266 -0.0778083 0.342642 -0.0356759 -0.0308539
-0.436727 0.161491 -0.169508 0.664495 0.151276 -0.29285
-0.438818 -0.17656 -0.343282 0.169476 0.0228469 -0.0672508
-0.432256 -0.0718069 -0.40158 0.975537 -0.0175143 0.000644344
-0.44587 -0.172285 -0.380992 -0.968754 -0.028175 -0.000639836
-0.44586 -0.10051 -0.397165 -0.986346 -0.00782549 -0.000651417
-0.445843 0.172619 -0.426697 -0.985475 0.00179737 -0.000650844
-0.445868 -0.148627 -0.383728 -0.969055 -0.0269654 -0.000640034
-0.437347 0.060169 -0.408601 0.24301 0.00566459 0.000160509
-0.441694 -0.170841 -0.37727 -0.363043 -0.0263142 -0.000239791
-0.434897 0.0480757 -0.406959 0.594095 0.0104101 0.000392401
-0.435963 -0.118069 -0.384425 0.452868 -0.00764819 0.00029912
-0.444432 0.115239 -0.431462 -0.767125 0.0196344 -0.000506581
-0.444385 0.104979 -0.43007 -0.760886 0.0185611 -0.000502462
-0.433635 -0.207069 -0.387739 0.76259 -0.0364219 0.000503704
-0.432453 0.0410818 -0.0679121 0.746591 -0.00806189 -0.103849
-0.432475 -0.227595 -0.030998 0.531767 -0.0275888 -0.220689
-0.432481 -0.248034 -0.0220028 0.648869 0.0193458 0.148982
-0.432462 -0.10239 -0.0523299 0.542805 -0.0508087 -0.418922
-0.432477 -0.255587 -0.0282143 0.486477 -0.037936 -0.297852
-0.446065 0.00748949 -0.0522302 -0.645067 0.0470158 0.330347
-0.446076 -0.19838 -0.0349405 -0.633577 -0.000626989 -0.0145284
-0.440301 -0.102661 -0.0377097 0.156619 0.0640457 0.415234
-0.433045 -0.0599715 -0.0431675 0.735396 0.0417235 0.218974
-0.436885 -0.139403 -0.0330076 0.405305 0.0532982 0.350407
-0.435958 -0.128274 -0.0344309 0.481624 0.0504702 0.322581
-0.44499 -0.264228 -0.0170426 -0.273625 0.0779142 0.607092
-0.4352 0.0301961 -0.0547038 0.606635 0.0487814 0.227352
-0.443505 -0.221574 -0.0224986 -0.140895 0.0734849 0.55045
-0.435861 -0.253054 -0.0338541 0.0917424 -0.0689108 -0.546153
-0.440395 0.0346823 -0.0706683 -0.382713 -0.017769 -0.295722
-0.438769 0.0161428 -0.0682956 -0.249082 -0.0251999 -0.344124
-0.444101 -0.0552487 -0.0591647 -0.630355 -0.017865 -0.250034
-0.43679 -0.207888 -0.0653704 0.405554 -0.356706 -0.468109
-0.441606 0.0605932 -0.265387 -0.612358 0.100387 0.127637
-0.436959 0.219862 -0.383729 0.0299808 0.554011 0.720356
-0.440143 -0.163437 -0.0914731 -0.14661 0.373862 0.489109
-0.440573 0.13267 -0.325124 -0.264125 -0.350831 -0.460274
1.17721 -0.232355 -0.370052 -0.544088 0.158949 -0.321917
1.18211 -0.126594 -0.316559 0.185283 0.364865 -0.725561
1.18207 0.00209134 -0.249591 0.559123 0.19362 -0.391831
1.17833 -0.197878 -0.346518 -0.192274 -0.161086 0.305764
1.1797 -0.134597 -0.320939 -0.265097 0.329078 -0.652579
1.17288 -0.230441 -0.37824 -0.978459 -0.0207042 -0.000646324
1.1729 0.0897663 -0.416388 -0.984904 -0.00195717 -0.000650594
1.18648 -0.202249 -0.38355 0.967035 -0.0310325 0.000602023
1.1865 -0.0310785 -0.408478 0.972839 -0.0186561 0.000586476
1.18648 -0.193365 -0.379511 0.978632 -0.0191009 0.000570961
1.18498 0.0909543 -0.411816 0.752738 0.0170922 0.00034149
1.18524 0.00870641 -0.40066 0.795438 0.0100436 0.000381689
1.18635 0.118539 -0.415556 0.946497 0.0229437 0.0004538
1.18107 -0.232906 -0.367892 0.215944 -0.0224773 7.36227e-05
1.17802 -0.18727 -0.389469 -0.250616 -0.0175797 -0.000165584
1.17813 -0.198039 -0.388009 -0.235753 -0.0188457 -0.000155765
1.17908 -0.205964 -0.386933 -0.0996478 -0.021874 -6.5862e-05
1.17269 0.089624 -0.064859 -0.983024 -0.00476688 -0.000649347
1.1727 0.155883 -0.0738989 -0.98741 0.00188486 -0.000652254
1.1863 0.0417904 -0.0692914 0.976299 -0.0131093 0.000644847
1.18629 0.0183688 -0.0636887 0.980371 -0.00983794 0.000647537
1.18629 -0.0835099 -0.0540178 0.968623 -0.0250706 0.000639777
1.18484 -0.250918 -0.0177812 0.784443 -0.0125532 0.000518126
1.18363 0.176155 -0.0724177 0.585433 0.020226 0.00038668
1.18503 -0.172087 -0.027866 0.806472 -0.0055718 0.000532677
1.1845 -0.162251 -0.0291246 0.729937 -0.00595672 0.000482125
1.18131 -0.239985 -0.034568 0.249306 -0.0280062 0.000164638
1.17283 -0.0862932 -0.0542342 -0.959571 0.00405672 -0.000633889
1.1764 -0.115211 -0.050533 -0.44929 -0.0064515 -0.000296826
1.17436 -0.255921 -0.0325327 -0.746439 -0.0135904 -0.000493089
1.17847 -0.160474 -0.0447414 -0.154544 -0.0149246 -0.000102129
1.17386 0.0673174 -0.0738853 -0.805763 0.0145494 -0.00053231
1.17376 -0.19562 -0.0402474 -0.829958 -0.00719436 -0.000548263
1.17719 0.167875 -0.343507 -0.663786 0.200213 0.262186
1.182 -0.127488 -0.125361 0.889764 -0.0663532 -0.0710554
1.18196 -0.201004 -0.0628997 0.958351 -0.0251434 -0.0268535
1.18186 -0.073016 -0.159457 0.795811 0.0830088 0.111803
1.17733 -0.120429 -0.13118 -0.651255 -0.145533 -0.187645
0.434698 -0.0950053 -0.298269 0.616955 0.163923 -0.339979
0.433937 -0.107285 -0.300793 0.746836 -0.0361439 0.057248
0.432584 0.0503697 -0.220456 0.343847 -0.0816737 0.173504
0.432203 -0.106516 -0.300402 0.211077 -0.105281 0.201625
0.433081 -0.0654011 -0.286121 -0.176911 0.369889 -0.730301
0.425495 0.0330285 -0.410352 -0.984359 -0.00468358 -0.000650171
0.425492 0.0281186 -0.405126 -0.974428 -0.0148028 -0.000643612
0.439094 -0.0555388 -0.405147 0.972462 -0.0199645 0.000642171
0.439079 -0.244536 -0.380458 0.960049 -0.0396377 0.000633975
0.427903 -0.218452 -0.370298 -0.610237 -0.0349601 -0.000403088
0.434175 -0.12022 -0.383617 0.279998 -0.0107541 0.000184849
0.434474 -0.122088 -0.398752 0.30325 -0.0206987 0.000200205
0.431475 -0.178125 -0.391153 -0.128037 -0.0187672 -8.46298e-05
0.426949 -0.231954 -0.383854 -0.777495 -0.0129733 -0.000513552
0.426089 0.184479 -0.440337 -0.882261 0.0281074 -0.000582741
0.425292 0.0883248 -0.0660184 -0.81166 0.00690211 0.00588913
0.425272 -0.182573 -0.0328029 -0.570871 0.0261063 0.192349
0.425272 -0.136037 -0.0330491 -0.494506 0.0655302 0.494335
0.438908 0.211068 -0.0921997 0.85128 -0.00705891 -0.118639
0.438873 -0.176073 -0.0331148 0.668783 0.0109263 0.0735716
0.429821 -0.211432 -0.0232794 0.0161691 0.0673852 0.497607
0.434772 -0.0344502 -0.0459182 0.473202 0.0527663 0.291938
0.432625 -0.139181 -0.0325208 0.263282 0.0589887 0.394699
0.42968 -0.0765479 -0.160111 -0.612417 0.108719 0.142223
0.429724 0.0200982 -0.234457 -0.697602 0.0284059 0.0368387
0.4297 -0.0342089 -0.194192 -0.713392 -0.0310017 -0.0410847
0.429787 0.161839 -0.339982 -0.674644 0.153484 0.200894
0.433153 -0.231833 -0.0388069 0.413154 0.223035 0.292097
0.432045 -0.174666 -0.0823959 0.187064 0.252162 0.327777
-0.268371 -0.494716 -0.414364 0.143078 -0.147676 -0.504609
-0.158276 -0.291814 -0.415755 0.0468132 -0.0286925 -0.845321
-0.268774 -0.500933 -0.363337 0.0786598 -0.316662 0.227538
-0.214841 -0.399733 -0.258846 0.261871 -0.4446 0.279854
-0.266555 -0.498918 -0.355266 0.0860144 -0.60215 0.530481
-0.222372 -0.41425 -0.272761 0.236253 -0.477013 0.326518
-0.286324 -0.532744 -0.399305 0.0191387 -0.128904 0.053664
-0.291018 -0.544009 -0.404087 0.00298214 -0.438248 0.39311
-0.294634 -0.497072 -0.417187 -0.0581712 0.00805844 -0.708039
-0.217915 -0.378218 -0.419407 -0.00679696 0.0025241 -0.979196
-0.241071 -0.399567 -0.419759 -0.367985 0.190941 -0.566388
-0.178192 -0.307184 -0.418255 -0.175351 0.0995885 -0.793022
-0.149999 -0.260504 -0.417497 -0.209456 0.122873 -0.757933
-0.185511 -0.323166 -0.418513 -0.0780171 0.0463615 -0.902531
-0.147103 -0.252736 -0.417372 -0.281027 0.161562 -0.677092
-0.153838 -0.25196 -0.417364 -0.546061 0.301673 -0.375493
-0.266225 -0.466253 -0.397987 0.0536749 -0.101155 0.599162
-0.218358 -0.362233 -0.225624 -0.245455 -0.261731 0.348131
-0.157559 -0.246489 -0.105697 -0.287817 -0.282917 0.430531
-0.306219 -0.543779 -0.398211 -0.00391059 -0.709726 0.633686
-0.247063 -0.428326 -0.283604 -0.102792 -0.57485 0.584515
-0.273465 -0.483535 -0.338408 -0.0555037 -0.638587 0.613635
-0.222423 -0.380374 -0.236004 -0.143861 -0.518803 0.564301
-0.191562 -0.325699 -0.208791 -0.152959 0.466053 -0.387528
-0.212886 -0.35279 -0.235681 -0.365205 0.52119 -0.328142
-0.159452 -0.255442 -0.139068 -0.434909 0.490574 -0.260631
-0.211074 -0.36795 -0.250721 0.00938351 0.452758 -0.461405
0.238522 -0.4512 -0.410449 -0.268823 -0.187401 0.122172
0.23645 -0.448496 -0.406846 -0.196311 -0.164822 0.32824
0.133283 -0.259315 -0.125388 -0.400867 -0.395085 0.179671
0.188641 -0.364459 -0.231348 -0.4641 -0.326899 0.0644405
0.178854 -0.34587 -0.213573 -0.463738 -0.316786 0.0565543
0.280056 -0.486482 -0.40854 0.082196 -0.0163038 0.195681
0.289189 -0.504436 -0.405059 0.0562002 -0.0272634 0.485678
0.306266 -0.532706 -0.414398 0.0082764 -0.0866336 -0.304576
0.275894 -0.476504 -0.415493 0.0942761 -0.0244746 -0.387749
0.213359 -0.363483 -0.409686 0.271 0.123283 0.118731
0.28802 -0.498345 -0.416842 0.060018 -0.0536727 -0.504707
0.230131 -0.408506 -0.419623 0.0145433 -0.022821 -0.54288
0.214815 -0.366265 -0.418962 0.228915 0.0816786 -0.628896
0.146453 -0.244216 -0.392581 0.714447 0.375242 0.187521
0.237615 -0.419202 -0.396596 0.14373 0.0375316 0.808037
0.199952 -0.356318 -0.395155 0.167927 0.0575817 0.789873
0.301571 -0.527991 -0.39737 0.256176 0.0372381 0.0731681
0.164779 -0.27255 -0.131996 0.538055 0.0411832 0.244208
0.188041 -0.316786 -0.175735 0.456952 -0.0620121 0.300499
0.2414 -0.418247 -0.276074 0.271223 -0.297778 0.428832
0.1826 -0.306063 -0.166164 0.491628 0.0106786 0.246899
0.305993 -0.537329 -0.404063 0.202059 -0.102002 0.183484
0.265641 -0.461575 -0.326486 0.302002 -0.0489291 0.190711
0.306748 -0.535615 -0.41098 0.330588 0.30008 -0.15231
0.267377 -0.465474 -0.328708 0.271095 -0.133455 0.258888
0.262537 -0.457065 -0.318219 0.25484 -0.214393 0.332457
0.158853 -0.263128 -0.119429 0.495712 -0.096093 0.360622
0.142077 -0.250984 -0.107388 0.147353 -0.341086 0.421923
0.176186 -0.309932 -0.165866 0.151635 -0.38926 0.467142
0.177711 -0.327053 -0.182855 -0.145818 -0.622382 0.540977
0.168086 -0.310083 -0.16602 -0.140126 -0.603434 0.526553
0.255531 -0.447074 -0.301914 0.161222 -0.501615 0.57242
0.274091 -0.485858 -0.367413 0.273042 0.603995 -0.485397
0.240057 -0.433311 -0.3153 0.156214 0.64067 -0.58074
-1.1841 0.0659571 -0.214529 0.56924 -0.151598 0.297482
-1.1891 0.279154 -0.110911 -0.581518 0.166926 -0.320032
-1.18906 0.147084 -0.174136 -0.789089 -0.0919526 0.177494
-1.18587 0.235974 -0.126835 0.195691 -0.218221 0.42947
-1.17963 0.326956 -0.449467 0.965694 0.0338214 0.00045758
-1.17965 0.128317 -0.418967 0.969098 0.0227886 0.000470444
-1.17963 0.309384 -0.450269 0.973413 0.0254316 0.000486751
-1.19323 0.234243 -0.446795 -0.964471 0.0314902 -0.000608888
-1.19325 -0.00188039 -0.413244 -0.980708 0.00618624 -0.000565391
-1.19324 0.326278 -0.445666 -0.988233 0.0112737 -0.000545235
-1.18858 0.294307 -0.440803 -0.32094 0.018318 -0.000204638
-1.18434 0.296976 -0.441163 0.285901 0.028736 9.60827e-05
-1.19275 0.267499 -0.437169 -0.914109 0.00584986 -0.000494207
-1.18704 0.246693 -0.434344 -0.0977808 0.0175611 -8.5262e-05
-1.18532 0.0297382 -0.420302 0.161011 -0.00398645 9.98813e-05
-1.17985 0.161923 -0.0807946 0.985783 0.00745078 0.000530654
-1.17984 0.29599 -0.097851 0.979001 0.0188158 0.000503718
-1.17986 0.00904259 -0.0531992 0.977188 0.0108115 0.000496525
-1.17986 -0.0125819 -0.0516403 0.980672 0.0065896 0.000510361
-1.17987 -0.0686023 -0.0464609 0.987411 -0.0020616 0.000537121
-1.19344 0.266079 -0.0986624 -0.967145 0.0296477 -0.000638801
-1.19345 0.0715565 -0.0749372 -0.974383 0.0157549 -0.000643582
-1.19344 0.321409 -0.0969115 -0.982122 0.0165627 -0.000648694
-1.19249 0.0760841 -0.061023 -0.83615 -0.0107174 -0.000567357
-1.1837 0.214808 -0.0787657 0.413766 0.0207439 0.000122059
-1.19025 0.252023 -0.0835299 -0.525545 0.00900685 -0.000396791
-1.1871 0.324315 -0.0927767 -0.0796759 0.0221492 -0.000150984
-1.19193 -0.187396 -0.0273154 -0.740329 -0.0313757 -0.000513045
-1.1857 0.254453 -0.0838386 0.124677 0.0195044 -3.77763e-05
-1.18613 0.21034 -0.0935817 0.0815467 0.0125381 2.12158e-05
-1.18167 0.149501 -0.0857963 0.717265 -0.00264582 0.000415959
-1.18967 0.33764 -0.109869 -0.420757 0.0312013 -0.000304223
-1.18067 0.174293 -0.0889675 0.861905 -0.00285009 0.000499171
-1.18407 0.0495806 -0.257585 0.824691 -0.0372725 -0.0465577
-1.18406 0.0851414 -0.285881 0.819968 -0.0855327 -0.109687
-1.189 0.0781182 -0.28052 -0.805593 0.0330842 0.0442623
-1.1873 0.0568449 -0.259878 -0.39749 0.123844 0.170304
-1.1887 0.171369 -0.347201 -0.715503 0.132712 0.178872
-1.18875 0.0100733 -0.224216 -0.788141 0.0803125 0.116819
-1.1885 0.0499625 -0.254631 -0.707828 0.0980515 0.138153
-1.18722 0.169521 -0.353665 -0.045267 -0.192912 -0.251797
-1.18507 0.116579 -0.313296 0.541667 -0.136878 -0.172876
-0.436633 -0.163053 -0.330645 0.932087 0.025442 -0.0556843
-0.436695 0.044104 -0.225228 0.563536 -0.130308 0.257203
-0.436648 -0.111838 -0.304362 0.822678 -0.0349002 0.0645493
-0.441694 0.256978 -0.117707 -0.547092 -0.0803697 0.163383
-0.441267 0.116105 -0.187477 -0.65275 -0.155499 0.299088
-0.439219 0.167536 -0.167936 0.193664 0.189342 -0.378237
-0.432233 0.272357 -0.441123 0.967655 0.0297864 0.000639138
-0.432264 -0.0872782 -0.388993 0.980368 0.00325853 0.000647535
-0.445831 0.319269 -0.447271 -0.982269 0.0169561 -0.000648706
-0.445834 0.245818 -0.440981 -0.978538 0.0178664 -0.000646234
-0.445835 0.209702 -0.438918 -0.974523 0.0204939 -0.000643574
-0.445823 0.334701 -0.459661 -0.959616 0.0402025 -0.000633697
-0.445832 0.226557 -0.44395 -0.967781 0.0278835 -0.000639107
-0.445832 0.284391 -0.444959 -0.979069 0.0188173 -0.000646585
-0.441874 0.0878552 -0.412358 -0.406092 -0.00260697 -0.000268204
-0.445587 -0.138745 -0.381626 -0.921889 -0.0326554 -0.000608897
-0.43723 0.0787213 -0.426504 0.261046 -0.00103562 0.000172472
-0.432456 0.0982536 -0.0643293 0.849103 0.0387122 0.127948
-0.432431 0.347929 -0.106121 0.975056 0.0199454 0.00632943
-0.43246 -0.00400059 -0.0565986 0.816334 0.0275839 0.177769
-0.432444 0.194899 -0.0836808 0.904222 0.0250835 0.0808753
-0.446054 0.0673216 -0.0728689 -0.838055 2.22118e-05 -0.142847
-0.446059 0.0337901 -0.0640405 -0.832884 -0.0133857 -0.159191
-0.446045 0.1973 -0.0884724 -0.895408 0.0146878 -0.0795096
-0.446056 0.0368407 -0.0698614 -0.8233 -0.00211133 -0.1577
-0.446043 0.285734 -0.0893709 -0.953901 0.00519375 -0.0364253
-0.446048 0.166739 -0.0833244 -0.884887 0.0082756 -0.0944032
-0.443924 0.32114 -0.091929 -0.647444 0.0198717 0.0387003
-0.445892 -0.0209933 -0.0481604 -0.58227 0.0539485 0.385284
-0.445518 0.322874 -0.0921516 -0.877547 0.0160612 0.036818
-0.445554 0.185557 -0.0745845 -0.743405 0.0314477 0.17598
-0.44489 0.163462 -0.0717575 -0.625903 0.0354421 0.198425
-0.43911 0.207924 -0.0928307 -0.118092 0.003611 -0.15363
-0.43887 0.276453 -0.101598 -0.0156496 0.0131326 -0.0841394
-0.436076 0.18699 -0.0901503 0.295514 -0.00634382 -0.174613
-0.440492 0.215986 -0.0938631 -0.307932 0.0079286 -0.145567
-0.43659 0.235414 -0.401375 0.495436 -0.0851764 -0.117287
-0.436607 0.202085 -0.373659 0.377314 0.142055 0.180871
-0.441675 -0.09892 -0.14761 -0.646197 -0.150969 -0.199152
-0.441547 0.193188 -0.366849 -0.548334 0.0275862 0.0321946
-0.436798 0.298303 -0.443539 -0.0246063 0.592026 0.769162
-0.437536 -0.0638305 -0.175294 0.290792 -0.352005 -0.46264
-0.43756 -0.0243032 -0.205433 0.294776 -0.34523 -0.454163
1.17714 -0.003877 -0.25382 -0.555693 0.178649 -0.353094
1.17709 0.158582 -0.171413 -0.546329 0.200012 -0.388642
1.17711 0.0683954 -0.217448 -0.544455 0.202934 -0.397498
1.17768 0.223475 -0.131804 -0.472196 -0.126241 0.250403
1.17721 0.146971 -0.17079 -0.615785 -0.151052 0.294171
1.17755 0.269591 -0.114972 -0.467899 0.223008 -0.429915
1.17288 -0.170904 -0.391417 -0.984722 -0.00432898 -0.000650491
1.17291 0.250392 -0.436852 -0.986316 0.010263 -0.000651541
1.17291 0.137669 -0.429186 -0.976372 0.0158763 -0.000644993
1.17289 -0.112862 -0.397236 -0.985877 -0.00325395 -0.000651251
1.17291 0.142841 -0.428915 -0.978149 0.0142986 -0.000646163
1.17291 0.310106 -0.44245 -0.988327 0.0105467 -0.000652864
1.17291 0.235549 -0.441411 -0.973207 0.0228018 -0.000642909
1.18651 0.13369 -0.426196 0.985549 0.00654693 0.000532497
1.18648 -0.106879 -0.388312 0.987669 -0.00481358 0.00054051
1.18651 0.173843 -0.432796 0.985782 0.00785694 0.000533376
1.18235 0.199407 -0.426527 0.369087 0.0209012 9.76533e-05
1.17781 0.0103079 -0.400881 -0.266913 -0.00760931 -0.00025246
1.18421 -0.122749 -0.398217 0.637163 -0.0263578 0.00041521
1.17268 -0.114367 -0.0470782 -0.988883 -0.00510251 -0.000653232
1.17269 0.0195253 -0.0663494 -0.978004 0.0103561 -0.00064607
1.1727 0.0622917 -0.0726125 -0.974313 0.0155095 -0.00064364
1.1863 0.22926 -0.0853609 0.977173 0.0183787 0.000645424
1.18632 0.354141 -0.107857 0.984099 0.015723 0.000649999
1.1863 0.19268 -0.0757279 0.969044 0.0252562 0.000640056
1.17904 0.353646 -0.0951284 -0.0820876 0.0245858 -5.42568e-05
1.17695 0.19488 -0.0748181 -0.371985 0.00663497 -0.000245727
1.17398 0.0467465 -0.0558686 -0.788868 -0.0124329 -0.000521078
1.18274 -0.031314 -0.0612628 0.461997 -0.0138124 0.000305114
1.18582 -0.0907553 -0.0536569 0.899936 -0.0257452 0.000594404
1.17362 0.355995 -0.110816 -0.829748 0.0392214 -0.000548181
1.18048 0.0477648 -0.0713806 0.140352 -0.00206781 9.26429e-05
1.182 -0.110209 -0.132446 0.886534 -0.0257298 -0.0304811
1.17791 -0.11253 -0.129331 -0.689561 0.0586586 0.092374
1.17733 -0.190618 -0.0697902 -0.874073 0.0193666 0.0449159
1.18156 -0.103174 -0.144337 0.819967 -0.108384 -0.126659
1.17945 0.0502172 -0.261295 0.454427 -0.328103 -0.423636
1.18084 0.209826 -0.382993 0.47942 -0.311403 -0.410034
0.434651 0.0561741 -0.218655 0.934882 0.0222102 -0.0461011
0.434638 0.0978069 -0.197391 0.936878 0.0230445 -0.0420814
0.429872 -0.227487 -0.362048 -0.521975 -0.204439 0.3919
0.425502 0.0368438 -0.420081 -0.973187 0.0151889 -0.000642792
0.439107 0.179813 -0.427499 0.971586 0.0223012 0.000641593
0.439109 0.190079 -0.431279 0.976075 0.0182065 0.000644557
0.439107 0.135967 -0.427289 0.986147 0.00605533 0.000651209
0.439104 0.159431 -0.423502 0.970097 0.0230065 0.00064061
0.439113 0.215723 -0.438156 0.98186 0.0134065 0.000648378
0.429066 0.263056 -0.435605 -0.476054 0.01276 -0.000314471
0.42585 -0.0713327 -0.390254 -0.913604 -0.0261546 -0.000603441
0.430772 0.291899 -0.439516 -0.233965 0.019543 -0.000154588
0.430963 0.330776 -0.460177 -0.179055 0.0301419 -0.000118323
0.432674 0.224672 -0.445785 0.0609944 0.016102 4.02122e-05
0.438524 -0.00720645 -0.414332 0.887282 -0.0196348 0.000585917
0.425309 0.32714 -0.0949679 -0.969885 0.0121257 -0.0164566
0.438908 0.322881 -0.0921026 0.943759 0.0404833 0.0185101
0.438895 0.134843 -0.0692885 0.866238 0.0372525 0.110085
0.438901 0.185882 -0.0789254 0.894183 0.0312222 0.0852088
0.438882 -0.0309607 -0.0475508 0.794633 0.0376553 0.190841
0.428126 0.254555 -0.0828954 -0.479455 0.0289412 0.106087
0.430506 0.0231526 -0.0532906 0.0962257 0.0604171 0.340881
0.4293 -0.0243215 -0.0472178 -0.0283156 0.0630305 0.388891
0.433978 -0.0382367 -0.0608195 -0.113112 -0.0365078 -0.403113
0.435403 0.0361353 -0.0703337 0.164755 -0.0288158 -0.327608
0.429663 -0.115096 -0.134027 -0.711418 -0.102316 -0.134844
0.429725 0.0172695 -0.235973 -0.652168 -0.180667 -0.23998
0.434763 0.248973 -0.406724 0.914071 -0.00466338 -0.0224859
-0.128999 -0.237813 -0.411836 0.0185297 -0.00310617 -0.585118
-0.182446 -0.337885 -0.409673 0.163143 -0.0933356 -0.395485
-0.21382 -0.393817 -0.265821 0.244387 0.134903 -0.328568
-0.131048 -0.241054 -0.101446 0.520226 -0.379618 0.0969038
-0.162092 -0.298358 -0.171925 0.319236 0.0875872 -0.287311
-0.154348 -0.284071 -0.160488 0.301513 0.161834 -0.347758
-0.16519 -0.259962 -0.402746 -0.534462 0.283551 0.169815
-0.174395 -0.27681 -0.41552 -0.694251 0.375471 -0.119731
-0.291975 -0.491859 -0.420743 -0.114514 0.0462301 -0.828162
-0.23184 -0.401813 -0.419789 0.000629337 -0.00631894 -0.984164
-0.237552 -0.410092 -0.419924 0.000628423 -0.00516383 -0.984982
-0.194586 -0.348616 -0.395209 0.0527056 -0.0537647 0.637965
-0.181386 -0.322738 -0.3946 0.00310463 -0.0253198 0.670018
-0.164318 -0.302685 -0.394124 0.0986035 -0.0801073 0.84761
-0.223739 -0.401056 -0.396445 0.106132 -0.0843957 0.519308
-0.267844 -0.494746 -0.39865 0.35782 -0.228744 0.485504
-0.293884 -0.502114 -0.37105 -0.186339 -0.0422783 0.0913106
-0.252715 -0.422328 -0.302342 -0.368179 0.444385 -0.25819
-0.296886 -0.542039 -0.412428 0.000121517 0.0472535 -0.143358
-0.187257 -0.34748 -0.203341 0.337448 -0.580033 0.391811
-0.149052 -0.242459 -0.0990982 -0.0795875 -0.394917 0.437376
-0.138932 -0.234607 -0.0913019 0.148127 -0.432542 0.354185
-0.162814 -0.283213 -0.13955 0.120161 -0.47429 0.407013
-0.166836 -0.279241 -0.13561 -0.0904367 -0.42856 0.473903
-0.157683 -0.278738 -0.135107 0.227231 -0.491218 0.367196
-0.308166 -0.526056 -0.407639 -0.254879 0.578983 -0.445682
-0.277276 -0.479554 -0.361485 -0.147194 0.539713 -0.475035
-0.179199 -0.328911 -0.211969 0.178272 0.413722 -0.54913
-0.159392 -0.292805 -0.176136 0.21293 0.385793 -0.52797
-0.183497 -0.32986 -0.212914 0.133103 0.416772 -0.509952
-0.292714 -0.533438 -0.414951 -0.0334676 0.572736 -0.655147
-0.238391 -0.427101 -0.309421 0.0216082 0.49294 -0.550639
-0.146373 -0.267188 -0.150713 0.225405 0.366611 -0.502082
-0.281785 -0.503443 -0.385187 -0.0694151 0.552921 -0.579448
-0.273694 -0.475097 -0.357061 -0.129598 0.535568 -0.484379
0.127359 -0.246882 -0.402654 -0.0319562 -0.0273303 0.212356
0.121459 -0.236084 -0.410895 -0.015723 -0.00390539 -0.489441
0.21759 -0.417721 -0.288306 -0.408375 -0.114171 -0.125456
0.211017 -0.405891 -0.275824 -0.44239 -0.173665 -0.0827819
0.268725 -0.512692 -0.380279 -0.266929 -0.0107523 -0.163015
0.136465 -0.264444 -0.146939 -0.523478 0.0406949 -0.327138
0.269135 -0.511145 -0.385047 -0.168962 0.272636 -0.394783
0.23342 -0.445013 -0.320459 -0.276145 0.175918 -0.348492
0.154669 -0.253741 -0.412099 0.488176 0.261276 -0.271433
0.250355 -0.432922 -0.400349 0.249089 0.0975687 0.559467
0.208753 -0.355022 -0.402305 0.404463 0.1953 0.256581
0.183434 -0.307622 -0.394388 0.647559 0.331481 0.240835
0.15778 -0.259573 -0.407669 0.546421 0.290044 -0.169478
0.166939 -0.295443 -0.417866 0.158143 0.084953 -0.58031
0.217821 -0.409923 -0.419652 -0.24594 -0.143761 -0.646158
0.302503 -0.536457 -0.418858 -0.0696755 -0.139455 -0.625651
0.247177 -0.457344 -0.397475 -0.000387961 -0.0822179 0.915763
0.283993 -0.504518 -0.398552 -0.000403484 -0.058128 0.950014
0.157061 -0.296107 -0.393778 -0.000416644 -0.0363589 0.980966
0.209811 -0.355153 -0.226919 0.451931 0.347922 -0.118427
0.172168 -0.285829 -0.165606 0.339846 0.538852 -0.363952
0.148581 -0.242416 -0.105017 0.515055 0.136029 0.13931
0.234944 -0.431392 -0.286363 -0.172856 -0.649733 0.542803
0.220176 -0.417867 -0.272949 -0.299209 -0.599221 0.423428
0.259296 -0.486727 -0.34126 -0.278911 -0.599969 0.427809
0.226763 -0.42328 -0.278317 -0.236952 -0.624247 0.482524
0.281223 -0.532613 -0.386782 -0.336904 -0.571031 0.361461
0.232226 -0.434787 -0.289733 -0.252118 -0.616734 0.465283
0.205976 -0.371473 -0.253969 0.0924981 0.609523 -0.577726
0.20034 -0.377392 -0.259844 -0.21412 0.386803 -0.51989
-1.30624 0.355175 -0.0346944 -3.30848e-05 -0.920713 0.0561563
-0.326648 0.35158 -0.101736 -3.15271e-05 -0.995027 0.0532182
-0.633668 0.353429 -0.0671465 -3.23434e-05 -0.956815 0.0547291
-0.697112 0.353495 -0.0659443 -3.23684e-05 -0.955452 0.0547829
-1.27758 0.355676 -0.0252386 -3.33151e-05 -0.91034 0.0565665
-0.719326 0.352667 -0.0815287 -3.19904e-05 -0.972564 0.0541062
-0.830202 0.352587 -0.0830998 -3.19454e-05 -0.974218 0.0540407
-1.14383 0.354226 -0.0524549 -3.26659e-05 -0.940337 0.0553804
-0.341211 0.352813 -0.0785604 -3.20862e-05 -0.969549 0.0542257
-1.2343 0.35372 -0.0620193 -3.2429e-05 -0.950788 0.054967
-0.0936923 0.351527 -0.10261 -3.15208e-05 -0.99614 0.0531744
-0.874849 0.352674 -0.0814909 -3.19814e-05 -0.972421 0.0541118
-0.349229 0.352552 -0.0834632 -3.19672e-05 -0.974932 0.0540129
-0.964805 0.352138 -0.0916333 -3.17306e-05 -0.983508 0.0536733
-0.820325 0.353641 -0.063263 -3.24253e-05 -0.952425 0.0549025
-0.711582 0.355521 -0.0278228 -3.32887e-05 -0.91355 0.05644
-1.19991 0.355266 -0.0329062 -3.31347e-05 -0.918817 0.0562313
-1.16153 0.354205 -0.0528596 -3.2655e-05 -0.94077 0.0553632
-0.853848 0.354925 -0.0391157 -3.30067e-05 -0.925867 0.0559528
-1.04957 0.355897 -0.0209579 -3.34331e-05 -0.905785 0.0567468
-0.900017 0.352541 -0.0840096 -3.19189e-05 -0.975172 0.0540029
-1.05934 0.357571 0.0105381 -3.41935e-05 -0.871167 0.0581158
-1.26101 0.354768 -0.0423113 -3.29036e-05 -0.929113 0.0558241
-0.619038 0.352464 -0.0852822 -3.19061e-05 -0.976754 0.0539406
-0.795226 0.351499 -0.103538 -3.14537e-05 -0.996702 0.0531516
-0.412025 0.352587 -0.0828486 -3.19781e-05 -0.974215 0.0540411
-1.30464 0.354236 -0.0523489 -3.26582e-05 -0.940115 0.055389
-1.07639 0.352397 -0.0868181 -3.18398e-05 -0.978143 0.0538853
-0.801951 0.352 -0.0941287 -3.16806e-05 -0.986357 0.0535607
-1.0034 0.352456 -0.0856594 -3.18725e-05 -0.976918 0.0539338
-0.780435 0.354335 -0.0501723 -3.27442e-05 -0.938066 0.0554704
-0.795355 0.353539 -0.0651627 -3.2381e-05 -0.954529 0.0548194
-1.21811 0.353519 -0.0658023 -3.23387e-05 -0.954956 0.0548022
-1.16442 0.351998 -0.0943772 -3.16516e-05 -0.986393 0.053559
-1.24223 0.355804 -0.0228128 -3.3376e-05 -0.907698 0.056671
-0.411767 0.352868 -0.077565 -3.21058e-05 -0.968409 0.0542707
-0.973972 0.353586 -0.064386 -3.23884e-05 -0.953559 0.0548576
-0.956157 0.35515 -0.0349554 -3.31008e-05 -0.921228 0.0561361
-1.33252 0.359125 0.0396004 -3.48784e-05 -0.839051 0.0593856
-1.20746 0.358428 0.0265781 -3.45717e-05 -0.853443 0.0588166
-0.770451 0.352788 -0.0792848 -3.20414e-05 -0.970065 0.054205
-1.35543 0.35831 0.0242527 -3.45061e-05 -0.855902 0.0587192
-0.492705 0.353956 -0.0571488 -3.2594e-05 -0.94592 0.05516
-1.34299 0.358013 0.0186793 -3.43722e-05 -0.862035 0.0584767
-0.382446 0.353411 -0.0673291 -3.2355e-05 -0.95718 0.0547148
-0.475644 0.351878 -0.0962331 -3.16506e-05 -0.988882 0.0534611
-0.770671 0.355718 -0.024165 -3.33733e-05 -0.909492 0.0566004
-0.282737 0.352172 -0.0905866 -3.17993e-05 -0.982803 0.0537016
-0.867714 0.354271 -0.0514399 -3.2708e-05 -0.939401 0.0554175
-1.04063 0.355473 -0.0289239 -3.32411e-05 -0.914545 0.0564004
-0.870454 0.35539 -0.0303815 -3.32167e-05 -0.916258 0.0563328
-0.134731 0.352062 -0.0925696 -3.17608e-05 -0.985079 0.0536117
-0.920654 0.354824 -0.0410576 -3.29556e-05 -0.927957 0.0558701
-1.03974 0.351945 -0.0952971 -3.16373e-05 -0.987485 0.0535159
-0.8258 0.352545 -0.083877 -3.19269e-05 -0.975075 0.0540068
-0.818145 0.354456 -0.0479213 -3.27962e-05 -0.935567 0.0555692
-0.318832 0.352797 -0.0788447 -3.20808e-05 -0.969876 0.0542128
-1.28791 0.354728 -0.0430845 -3.28832e-05 -0.929945 0.0557912
-1.16645 0.357041 0.000493263 -3.3944e-05 -0.882135 0.057682
-1.02187 0.35538 -0.0306598 -3.32004e-05 -0.916465 0.0563245
-1.12776 0.352819 -0.078918 -3.20275e-05 -0.969428 0.0542299
-1.27193 0.352178 -0.0910584 -3.17249e-05 -0.982675 0.053706
-1.35484 0.355948 -0.0201808 -3.34324e-05 -0.904732 0.0567882
-1.037 0.356041 -0.0182397 -3.34995e-05 -0.902806 0.0568646
-1.28289 0.357348 0.00621396 -3.40748e-05 -0.875772 0.0579335
-0.73304 0.353877 -0.0587686 -3.25395e-05 -0.947543 0.0550957
